# .PCD v0.7 - Point Cloud Data file format
VERSION 0.7
FIELDS x y z
SIZE 4 4 4
TYPE F F F
COUNT 1 1 1
WIDTH 1149
HEIGHT 1
VIEWPOINT 0 0 0 1 0 0 0
POINTS 1149
DATA ascii
-0.1041482453 0.1148709209 0.0393361477
-0.1028825087 0.1149063122 0.04084811657
-0.101942598 0.1149402882 0.04167004888
-0.1012199116 0.1149739856 0.04203202823
-0.1006058208 0.1150065469 0.04216391913
-0.1000460272 0.1150390393 0.0421808429
-0.09932334226 0.1150727289 0.04254282667
-0.09876359185 0.115105226 0.04255965971
-0.09825809356 0.1151376419 0.04246161918
-0.0977526405 0.1151700695 0.0423634934
-0.0972471854 0.1152024901 0.04226536215
-0.09538406016 0.115239647 0.04504237557
-0.09455273777 0.1152734778 0.04563437654
-0.09334130094 0.1153087998 0.04703138155
-0.09256432177 0.1153415682 0.04750816713
-0.09184163536 0.1153752657 0.04787014648
-0.09128184016 0.1154077579 0.0478870736
-0.09045056432 0.1154415931 0.04847898545
-0.08983647513 0.1154741546 0.04861087299
-0.08922234115 0.1155067112 0.04874285461
-0.08871692816 0.1155401342 0.04864479512
-0.08815717586 0.1155726237 0.04866163101
-0.08759738227 0.1156051161 0.04867855477
-0.08703758678 0.1156376009 0.04869548138
-0.08647783973 0.1156700977 0.04871231601
-0.08597238019 0.1157035162 0.04861434565
-0.08546692349 0.1157359366 0.04851621776
-0.08496146838 0.1157683572 0.04841808651
-0.08451031223 0.1158007085 0.04820499308
-0.08405915272 0.1158330599 0.04799189805
-0.08360799321 0.1158654114 0.04777880302
-0.08315683706 0.1158977627 0.04756570959
-0.08270567755 0.1159301142 0.04735261456
-0.08230881363 0.1159623966 0.04702455576
-0.08191195131 0.1159946792 0.0466964936
-0.08151509519 0.1160259634 0.04636827549
-0.08117252658 0.1160581693 0.0459252524
-0.08083000304 0.1160903874 0.04548213574
-0.08043313884 0.1161226624 0.04515407642
-0.08014491426 0.1161548113 0.04459599758
-0.07980235037 0.1161860266 0.04415281411
-0.07940548776 0.1162183018 0.04382475143
-0.07911726129 0.116250443 0.04326667542
-0.07882903335 0.1162825921 0.04270859499
-0.07854076636 0.1163137312 0.04215044387
-0.07819824123 0.1163459492 0.04170733057
-0.07791001636 0.1163780906 0.04114925121
-0.07762174966 0.1164092371 0.0405911006
-0.07727922424 0.1164414476 0.04014798678
-0.07693665751 0.1164736611 0.03970496085
-0.07659413545 0.1165058715 0.03926184862
-0.07619727313 0.116538154 0.03893378646
-0.07580041365 0.1165694385 0.03860556676
-0.0753492575 0.1166017897 0.03839247333
-0.07489809799 0.1166341412 0.0381793783
-0.07444693847 0.1166664927 0.03796628328
-0.07394147894 0.1166999112 0.03786831292
-0.07349032279 0.1167322625 0.03765521948
-0.07303916327 0.116764614 0.03744212446
-0.07253370657 0.1167970344 0.03734399657
-0.07208254706 0.1168293859 0.03713090154
-0.07163139091 0.1168617371 0.0369178081
-0.0711802314 0.1168940886 0.03670471308
-0.07072907357 0.11692644 0.03649161885
-0.07033221125 0.1169587226 0.03616355669
-0.06993535345 0.1169900069 0.03583533779
-0.06953848953 0.1170222893 0.03550727898
-0.0690873317 0.1170546407 0.03529418475
-0.06863617219 0.1170869922 0.03508108973
-0.06823935285 0.1171192717 0.03475294048
-0.06789678613 0.1171514852 0.03430991454
-0.0674456283 0.1171838366 0.03409682031
-0.06704876438 0.117216119 0.03376876151
-0.06665194504 0.1172483985 0.03344061227
-0.0662550828 0.1172806808 0.03311255426
-0.06580392329 0.1173130323 0.03289945923
-0.06540710584 0.1173453194 0.03257130715
-0.06495594633 0.1173776709 0.03235821212
-0.06455904534 0.1174089506 0.03203008394
-0.06410788583 0.117441302 0.03181698892
-0.06376536237 0.1174735199 0.03137387641
-0.06331420286 0.1175058714 0.03116078139
-0.06297163753 0.1175380774 0.03071775573
-0.0626834093 0.117570219 0.03015967477
-0.06234084709 0.1176014343 0.0297164921
-0.06205262054 0.1176335758 0.02915841194
-0.06176439231 0.1176657175 0.02860033099
-0.06142186885 0.1176979354 0.02815721849
-0.06102496618 0.1177292151 0.02782908951
-0.06057380835 0.1177615665 0.02761599528
-0.06012264884 0.117793918 0.02740290026
-0.05967149101 0.1178262694 0.02718980602
-0.05916607466 0.1178596926 0.02709174495
-0.05855198555 0.1178922538 0.02722363664
-0.05788355842 0.1179248796 0.02747057907
-0.05710657565 0.1179586459 0.02794752595
-0.05643819011 0.1179912762 0.02819438103
-0.05576980013 0.1180249045 0.02844139699
-0.05510141458 0.1180575348 0.02868825206
-0.0544330675 0.1180911604 0.02893517679
-0.05354745065 0.1181250676 0.02964214246
-0.05287906511 0.1181576979 0.02988899753
-0.052264976 0.1181902591 0.03002088923
-0.05165092451 0.1182238156 0.03015285018
-0.05098249738 0.1182564414 0.03039979261
-0.0504770418 0.1182888692 0.03030166564
-0.04991728751 0.1183223567 0.03031865945
-0.04935753605 0.1183548462 0.03033549574
-0.0488520386 0.118387262 0.0302374556
-0.04840087993 0.1184196134 0.03002436097
-0.04789542595 0.1184520414 0.02992623064
-0.04738997051 0.1184844617 0.02982810335
-0.04693881184 0.1185168131 0.02961500872
-0.04648765317 0.1185491645 0.02940191409
-0.04603649449 0.118581516 0.02918881946
-0.04558533582 0.1186138674 0.02897572483
-0.04513417757 0.1186462188 0.0287626304
-0.04462867991 0.1186786346 0.02866459017
-0.04401463052 0.1187121987 0.02879654838
-0.04350917466 0.118744619 0.02869842089
-0.04294938161 0.1187771039 0.02871534453
-0.04249822315 0.1188094553 0.02850225
-0.04177549912 0.1188421575 0.02886416009
-0.04121578651 0.1188756496 0.0288810666
-0.04011289968 0.118909831 0.03004807272
-0.03939025706 0.1189435256 0.03040996125
-0.0386829472 0.1189679732 0.03073798384
-0.03715602675 0.1189681054 0.03279757426
-0.03665362887 0.1189988751 0.03269272188
-0.03569025084 0.1190164115 0.03356183678
-0.03498294061 0.1190408517 0.03388985881
-0.03386584474 0.1190536429 0.03508370036
-0.03300486188 0.1190733428 0.03573635517
-0.0322975902 0.1190987856 0.03606444728
-0.03179523563 0.1191295525 0.03595950386
-0.03088301335 0.1191476706 0.03672040083
-0.02981715669 0.1191620436 0.03780600013
-0.02905860886 0.1191849022 0.03824226105
-0.02830009817 0.1192087633 0.03867859551
-0.02749035473 0.1192300448 0.03922300817
-0.02683428372 0.1192560667 0.03944278795
-0.02607581622 0.1192799325 0.0398790317
-0.0253685076 0.1193043729 0.04020705037
-0.02476367288 0.1193319836 0.04031859514
-0.02415879949 0.1193595827 0.04043022003
-0.02345152802 0.1193850256 0.04075831224
-0.022795457 0.1194110475 0.04097809202
-0.02219062549 0.1194386586 0.04108963007
-0.02153455531 0.1194646804 0.04130941025
-0.02087852305 0.119491705 0.0415292602
-0.02022245232 0.1195177343 0.04174904051
-0.01956638131 0.1195437562 0.04196882029
-0.0189103103 0.1195697782 0.04218860007
-0.01830551724 0.1195983844 0.04230020777
-0.01775188015 0.1196275724 0.04230359765
-0.01719828465 0.1196567649 0.04230690017
-0.01659341126 0.119684364 0.04241852506
-0.01603981979 0.1197135568 0.04242182125
-0.01553742107 0.1197443265 0.04231696848
-0.0149838264 0.1197735189 0.04232027139
-0.01443019167 0.1198027073 0.04232365415
-0.01392779434 0.1198334695 0.04221880165
-0.01337423966 0.1198636576 0.04222216671
-0.01287184262 0.1198944272 0.04211731473
-0.0123694439 0.119925197 0.04201246195
-0.01181585243 0.1199543897 0.04201575815
-0.01121097668 0.1199819885 0.04212739015
-0.01065738354 0.1200111813 0.04213068555
-0.01000131365 0.1200372106 0.04235046625
-0.009396516559 0.1200658166 0.04246208028
-0.00884288322 0.1200949975 0.04246546331
-0.008186811653 0.1201210269 0.04268524322
-0.007530741479 0.1201470487 0.0429050234
-0.006977145133 0.1201762413 0.04290832552
-0.006372272871 0.1202038478 0.04301995132
-0.005869873863 0.1202346101 0.04291509803
-0.00531632086 0.1202647981 0.04291846388
-0.00481392382 0.1202955677 0.0428136119
-0.004362764309 0.1203279192 0.04260051687
-0.003860367268 0.1203586888 0.04249566489
-0.003358010132 0.1203894631 0.04239072476
-0.00285561629 0.1204202331 0.04228586606
-0.002353217569 0.1204510028 0.04218101329
-0.001799581031 0.1204801833 0.04218440304
-0.001297227094 0.1205109579 0.04207945619
-0.0008460692638 0.1205433093 0.04186636196
-0.0003949097526 0.1205756608 0.04165326693
5.053652261e-06 0.120609589 0.04133202453
0.0004049736663 0.1206435297 0.04101068777
0.0008561298161 0.1206758809 0.04079759433
0.001307289327 0.1207082324 0.04058449931
0.001707209628 0.1207421656 0.04026316203
0.00215836914 0.1207745171 0.04005006701
0.002712003997 0.1208036975 0.04005345755
0.003214357934 0.1208344721 0.0399485107
0.00381919349 0.1208620829 0.04006005507
0.004424067432 0.1208896895 0.04017168009
0.004875223582 0.1209220407 0.03995858665
0.005428781464 0.1209522285 0.03996195842
0.005879940975 0.12098458 0.0397488634
0.006382333424 0.1210153424 0.03964400497
0.006782256636 0.1210492827 0.03932267493
0.007182176938 0.1210832159 0.03900133765
0.007633336449 0.1211155674 0.03878824263
0.007982094228 0.1211500824 0.03835868239
0.008382014529 0.1211840156 0.03803734511
0.008781938029 0.1212179485 0.03771601456
0.009181899916 0.1212518772 0.03739476464
0.009581816855 0.1212858102 0.03707342895
0.009930542731 0.1213213203 0.0366439435
0.01033046274 0.121355261 0.03632260674
0.01067914047 0.1213907757 0.0358930288
0.01102786635 0.1214262858 0.03546354335
0.01137654744 0.1214618008 0.03503396382
0.01172531178 0.1214963157 0.03460440871
0.01202275321 0.1215334192 0.03406659576
0.01232023668 0.1215705114 0.03352886133
0.01261772306 0.1216076106 0.03299113415
0.0128127313 0.1216478659 0.03223692194
0.01316141194 0.1216833877 0.03180735124
0.01345893387 0.1217194847 0.03126954716
0.01365394532 0.1217597397 0.03051534167
0.01390018592 0.1217984208 0.0298693671
0.01414643338 0.1218370944 0.02922339715
0.01439271901 0.1218747801 0.02857735806
0.01458773046 0.1219150351 0.02782315257
0.01488521027 0.1219521345 0.02728542025
0.01502906256 0.1219929715 0.02642299022
0.01532650415 0.1220300756 0.02588516896
0.01541907847 0.1220734969 0.02491456684
0.01561408336 0.122113752 0.02416035622
0.01580913298 0.1221530192 0.0234060816
0.0159529436 0.1221948517 0.0225437145
0.01614794819 0.1222351142 0.0217895044
0.0163429949 0.1222743743 0.02103522253
0.01633309212 0.1223209664 0.0198481398
0.01632326967 0.1223665513 0.01866107424
0.01631336221 0.1224131359 0.01747398921
0.0164059321 0.1224555593 0.0165032262
0.01485928415 0.1225475968 0.01206948406
0.0150030545 0.122589441 0.01120703348
0.01540305309 0.1226223741 0.01088571885
0.01544434501 0.1226673819 0.009806783766
-0.1055037352 0.1155352244 0.03832697624
-0.104509487 0.1155682745 0.03926380108
-0.1034066856 0.1156024654 0.04043062534
-0.1024123977 0.1156355106 0.04136754249
-0.1015811232 0.1156683555 0.04195929238
-0.1009670324 0.1157009168 0.04209118328
-0.1003529432 0.1157334783 0.04222307082
-0.09973889425 0.1157670346 0.04235503296
-0.09907050787 0.115799665 0.04260188764
-0.09851071267 0.1158321572 0.04261881476
-0.09800525757 0.1158645778 0.04252068351
-0.09755410142 0.115896929 0.04230759007
-0.09601676464 0.1159306778 0.04439433479
-0.09485962448 0.1159649331 0.04567621354
-0.0938653789 0.1159979829 0.04661304166
-0.09297976592 0.1160308996 0.04731984656
-0.0922028255 0.1160646706 0.04779670232
-0.09158873471 0.1160972319 0.04792859322
-0.09086601291 0.1161299265 0.04829050398
-0.09019762652 0.1161625569 0.04853735865
-0.08952924043 0.1161951947 0.04878421385
-0.08896944654 0.1162276797 0.04880113709
-0.08840969789 0.1162601764 0.04881797509
-0.0879041996 0.1162925923 0.04871993456
-0.08734444759 0.1163250892 0.04873677096
-0.08678465707 0.1163575739 0.0487536958
-0.08622494352 0.116391066 0.04877060186
-0.08571944552 0.1164234894 0.04867256184
-0.085268286 0.1164558409 0.04845946682
-0.08481712985 0.1164881921 0.04824637338
-0.08436597034 0.1165205436 0.04803327836
-0.08391481083 0.1165528951 0.04782018333
-0.08346365132 0.1165852466 0.04760708831
-0.08301249517 0.1166175978 0.04739399487
-0.08256133566 0.1166499493 0.04718089984
-0.08216451464 0.116682229 0.0468527498
-0.08176761722 0.1167135161 0.04652461958
-0.0814250918 0.1167457267 0.04608150576
-0.08102822788 0.1167780091 0.04575344696
-0.08068566087 0.1168102152 0.0453104205
-0.08034313909 0.1168424329 0.04486730879
-0.08000057208 0.116874639 0.04442428234
-0.07965804666 0.1169068496 0.04398116852
-0.07931552312 0.1169390677 0.04353805187
-0.07897295947 0.1169712736 0.043095027
-0.07868472964 0.117003415 0.04253694941
-0.0783422061 0.1170356332 0.04209383275
-0.07805397963 0.1170677745 0.04153575675
-0.0777657514 0.1170999161 0.04097767579
-0.07742318439 0.1171321222 0.04053464934
-0.07708065925 0.1171643402 0.04009153604
-0.07673805713 0.1171955508 0.03964844152
-0.07634123612 0.1172278305 0.03932029148
-0.0759443722 0.1172601129 0.03899223268
-0.07549321269 0.1172924644 0.03877913765
-0.07504205654 0.1173248156 0.03856604422
-0.07459089703 0.1173571671 0.03835294919
-0.07413973751 0.1173895186 0.03813985416
-0.07368858136 0.1174218698 0.03792676073
-0.07323742185 0.1174542213 0.0377136657
-0.07267762826 0.1174867137 0.03773058947
-0.07222646875 0.1175190652 0.03751749444
-0.0717753126 0.1175514165 0.037304401
-0.07132415308 0.117583768 0.03709130598
-0.07092733206 0.1176160476 0.03676315594
-0.07047617423 0.117648399 0.03655006171
-0.07007931032 0.1176806814 0.03622200291
-0.06968244968 0.1177129639 0.03589394154
-0.06928558548 0.1177452388 0.03556588222
-0.06883442765 0.1177775902 0.03535278799
-0.06843760859 0.1178098772 0.03502463926
-0.06798644908 0.1178422287 0.03481154423
-0.06758958685 0.1178745109 0.03448348623
-0.06713842734 0.1179068624 0.0342703912
-0.06679586201 0.1179390684 0.03382736554
-0.06639904127 0.1179713555 0.03349921602
-0.06594788344 0.1180037068 0.03328612179
-0.06555101953 0.1180359892 0.03295806299
-0.0651541586 0.1180682643 0.0326300011
-0.06475733787 0.1181005514 0.03230185158
-0.06430618004 0.1181329027 0.03208875735
-0.0639093178 0.118165185 0.03176069934
-0.06356679398 0.1181973958 0.03131758216
-0.06316993174 0.118229678 0.03098952416
-0.06282736473 0.1182618841 0.0305464977
-0.06253913658 0.1182940255 0.0299884209
-0.06225090835 0.1183261671 0.02943033995
-0.0619626818 0.1183583087 0.02887225979
-0.0616744151 0.1183894551 0.02831410919
-0.06127755286 0.1184217374 0.02798605118
-0.06093502744 0.118453948 0.02754293737
-0.0605381668 0.1184862305 0.027214876
-0.06008700897 0.1185185818 0.02700178177
-0.05963584946 0.1185509333 0.02678868674
-0.05918469163 0.1185832847 0.02657559251
-0.05867923493 0.1186157051 0.02647746462
-0.05806514657 0.1186482665 0.02660935256
-0.05745109509 0.118681823 0.02674131351
-0.05678271067 0.1187144607 0.0269881695
-0.05584275787 0.1187474342 0.02781003213
-0.05522866952 0.1187799956 0.02794192007
-0.05461457957 0.1188125569 0.02807381136
-0.05378330593 0.1188454017 0.02866556164
-0.05295202786 0.1188792445 0.02925747282
-0.05233793791 0.1189118058 0.02938936411
-0.05172384956 0.1189443672 0.02952125205
-0.05105546401 0.1189769975 0.02976810712
-0.05049566937 0.1190094823 0.02978503413
-0.04999021539 0.1190419102 0.02968690379
-0.04948476197 0.1190743307 0.02958877334
-0.04892496761 0.1191068228 0.02960570086
-0.04852810383 0.1191390978 0.02927764174
-0.04802265027 0.1191715257 0.0291795116
-0.04751715282 0.1192039415 0.02908147147
-0.04706599415 0.119236293 0.02886837684
-0.04661483548 0.1192686444 0.02865528221
-0.04610938121 0.1193010649 0.02855715136
-0.04571251814 0.1193333472 0.02822909296
-0.04520706429 0.1193657677 0.0281309623
-0.04475590562 0.1193981192 0.02791786767
-0.04425045004 0.1194305469 0.0278197407
-0.04374499578 0.1194629674 0.02772160985
-0.04323949854 0.1194953833 0.02762356981
-0.04278833987 0.1195277347 0.02741047518
-0.04250011258 0.1195598763 0.02685239468
-0.04221188364 0.1195920177 0.02629431751
-0.04203229228 0.119624026 0.02550621535
-0.04027776638 0.1196590487 0.02805298321
-0.03906629334 0.1196923852 0.02944975702
-0.03813559909 0.1197204084 0.03025126645
-0.03737705125 0.1197432671 0.03068752738
-0.0361574816 0.1197518969 0.03209769264
-0.0351940633 0.1197684379 0.03296674114
-0.03438431944 0.1197897195 0.0335111536
-0.03336962506 0.1198036838 0.03448837133
-0.0324061637 0.1198202127 0.03535751023
-0.03195500503 0.1198525641 0.0351444156
-0.0312989343 0.1198785935 0.0353641959
-0.03013060365 0.119888805 0.03666611881
-0.02942329343 0.1199132452 0.03699414085
-0.02835744149 0.1199266276 0.03807957977
-0.02759889407 0.1199494862 0.0385158409
-0.02694278418 0.119974513 0.03873555083
-0.02618427793 0.1199973761 0.03917172439
-0.02547696883 0.1200218237 0.03949974734
-0.02487213543 0.1200494271 0.03961128823
-0.02416482549 0.1200738748 0.03993931079
-0.02345756005 0.1200983198 0.04026723874
-0.02280148932 0.1201243491 0.04048701905
-0.02219661274 0.1201519479 0.04059865066
-0.02154058679 0.1201779821 0.04081833688
-0.02088451578 0.1202040041 0.04103811666
-0.02022844505 0.1202300334 0.04125789696
-0.01962356846 0.1202576322 0.04136952857
-0.01896749774 0.1202836616 0.04158930887
-0.01841390627 0.1203128543 0.04159260507
-0.01786027521 0.1203410445 0.04159583069
-0.01725539891 0.1203686507 0.04170746282
-0.01670180548 0.1203978362 0.0417107577
-0.0160969716 0.1204254469 0.04182230287
-0.01554333687 0.1204546352 0.04182568563
-0.0149897422 0.1204838276 0.04182898854
-0.01443610887 0.1205130085 0.04183237157
-0.01393371014 0.1205437782 0.0417275188
-0.01343135469 0.1205745523 0.04162257946
-0.01292895917 0.1206053225 0.04151771997
-0.0123753645 0.1206345149 0.04152102288
-0.01182172948 0.1206636958 0.04152440512
-0.01121689561 0.1206913065 0.04163595029
-0.01061206325 0.1207189176 0.04174748794
-0.009955993075 0.1207449395 0.04196726812
-0.009351160718 0.1207725506 0.04207880577
-0.00879752418 0.1208017311 0.04208219553
-0.008141454294 0.1208277604 0.04230197623
-0.007587861147 0.1208569533 0.04230527163
-0.006982985399 0.120884552 0.04241690363
-0.006429392252 0.1209137449 0.04242019903
-0.005875800785 0.1209429376 0.04242349523
-0.005322162567 0.1209721182 0.04242688419
-0.004819810311 0.1210028927 0.04232193813
-0.004368650799 0.1210352442 0.0421088431
-0.003866253759 0.1210660138 0.04200399112
-0.003415094248 0.1210983653 0.0417908961
-0.002861419533 0.121126558 0.04179421672
-0.002307828067 0.1211557508 0.04179751291
-0.001856668555 0.1211881023 0.04158441789
-0.001354271228 0.1212188645 0.04147956539
-0.0008518725062 0.1212496342 0.04137471261
-0.0004007146757 0.1212819856 0.04116161838
-7.943746336e-07 0.1213159188 0.0408402811
0.0004503651366 0.1213482703 0.04062718608
0.0008502817892 0.1213822107 0.04030585091
0.00125020209 0.1214161439 0.03998451363
0.001650167176 0.1214500723 0.03966327043
0.002101326687 0.1214824238 0.03945017541
0.002603677263 0.1215131982 0.03934523014
0.003054836774 0.1215455497 0.03913213512
0.003608474992 0.1215747303 0.03913552408
0.004162064778 0.1216039229 0.03913882106
0.004664463499 0.1216346926 0.03903396829
0.005166862221 0.1216654624 0.03892911552
0.005669260942 0.1216962322 0.03882426275
0.006069177882 0.1217301651 0.03850292706
0.006520337393 0.1217625166 0.03828983203
0.006971496904 0.1217948681 0.038076737
0.007371417205 0.1218288013 0.03775539973
0.007720139719 0.1218643112 0.03732591586
0.00817129923 0.1218966627 0.03711282084
0.008571219532 0.1219305959 0.03679148356
0.008971136184 0.1219645363 0.03647014839
0.009371056485 0.1219984695 0.03614881111
0.009771021571 0.1220323979 0.03582756791
0.0101196642 0.1220689081 0.03539805804
0.01046838671 0.1221044179 0.03496857417
0.01086830673 0.1221383586 0.03464723742
0.0112170326 0.1221738687 0.03421775196
0.01146328006 0.1222125423 0.03357178201
0.01176076307 0.1222496413 0.03303405641
0.01205820495 0.122286738 0.03249623463
0.01230445212 0.122325419 0.03185026519
0.01260193543 0.1223625106 0.03131253908
0.01279698497 0.1224027688 0.03055841475
0.01304323242 0.1224414424 0.02991244479
0.01334067722 0.1224785461 0.02937463025
0.01353572369 0.1225187967 0.02862050699
0.01378197085 0.1225574777 0.02797453755
0.01402821831 0.1225961513 0.0273285676
0.01417198706 0.1226379957 0.02646611366
0.01441823718 0.1226776668 0.02582030954
0.01451076672 0.122721093 0.02484961335
0.01470581975 0.1227613435 0.02409549522
0.01490082435 0.122801606 0.02334128512
0.01514707152 0.122840287 0.02269531568
0.01529088534 0.1228821192 0.0218329553
0.01548589329 0.1229223819 0.02107874361
0.01532231139 0.122973707 0.01956702254
0.01567103698 0.1230092245 0.01913753761
0.01560985521 0.1230583863 0.0178422784
0.01544632116 0.1231097142 0.01633065034
0.01451432967 0.1231847607 0.01319567284
0.01465810001 0.123226605 0.01233322226
0.01480191195 0.1232684448 0.01147085904
0.01489444284 0.1233128613 0.0105003248
-0.1059736034 0.1162334205 0.03802476742
-0.1050879904 0.1162663372 0.03873157232
-0.1039851152 0.11629853 0.03989825833
-0.1028822754 0.1163317256 0.04106501293
-0.1020509658 0.1163635751 0.04165669474
-0.1012739437 0.1163963463 0.04213357157
-0.1006598961 0.1164289122 0.04226537175
-0.1000458069 0.1164614737 0.04239725929
-0.09937742389 0.1164941039 0.04264411556
-0.0988176284 0.1165265887 0.04266104216
-0.09831213512 0.1165580215 0.04256284178
-0.09775238618 0.1165905107 0.04257967925
-0.09735552387 0.1166227933 0.04225161709
-0.09538373646 0.1166561092 0.0452581042
-0.0942809398 0.1166893096 0.04642476808
-0.09339529144 0.1167212234 0.04713150439
-0.09256397378 0.1167540637 0.047723345
-0.09194988299 0.116786625 0.0478552359
-0.09133583538 0.116819191 0.04798703608
-0.09050448261 0.1168510358 0.04857880861
-0.08983609623 0.1168836662 0.04882566329
-0.08927630263 0.1169161586 0.04884258705
-0.08871655398 0.1169486552 0.04885942505
-0.08815680328 0.1169811449 0.04887625757
-0.08759700808 0.1170136371 0.0488931847
-0.08703725738 0.1170461268 0.04891001722
-0.08653180433 0.1170785544 0.04881189144
-0.08602626757 0.1171099751 0.04871378126
-0.08552081247 0.1171423956 0.04861565001
-0.08506965296 0.1171747471 0.04840255498
-0.08461849681 0.1172070984 0.04818946155
-0.08422163289 0.1172393808 0.04786140274
-0.08377047338 0.1172717323 0.04764830772
-0.08331931723 0.1173040835 0.04743521428
-0.08286815772 0.117336435 0.04722211926
-0.08241699821 0.1173687865 0.04700902423
-0.08202021594 0.1174020688 0.04668094436
-0.08167765229 0.1174342746 0.04623791949
-0.08128078837 0.117466557 0.04590986069
-0.08088392577 0.1174988322 0.04558179801
-0.08059569622 0.1175309811 0.04502372094
-0.08019883698 0.117563256 0.04469565985
-0.07985631184 0.117595474 0.04425254655
-0.07951374483 0.1176276801 0.0438095201
-0.07922551836 0.1176598213 0.04325144409
-0.07888295135 0.1176920274 0.04280841764
-0.07854042781 0.1177242456 0.04236530098
-0.07825223645 0.1177573822 0.04180729304
-0.07790967308 0.1177895955 0.04136426869
-0.07756714766 0.1178218061 0.04092115488
-0.07722458065 0.1178540121 0.04047812842
-0.07688205551 0.1178862301 0.04003501513
-0.07648519627 0.117918505 0.03970695403
-0.07614262794 0.1179507184 0.03926393146
-0.07569146843 0.1179830699 0.03905083643
-0.07524031228 0.1180154211 0.03883774299
-0.07478915277 0.1180477726 0.03862464797
-0.07433799326 0.1180801241 0.03841155294
-0.07383253815 0.1181125447 0.03831342169
-0.073381382 0.1181448959 0.03810032825
-0.0728759269 0.1181773165 0.038002197
-0.07242476739 0.118209668 0.03778910198
-0.07197360788 0.1182420195 0.03757600695
-0.07146815482 0.118274447 0.03747788117
-0.07101699531 0.1183067985 0.03726478615
-0.07062013438 0.1183390736 0.03693672426
-0.07022327047 0.118371356 0.03660866546
-0.06977211264 0.1184037073 0.03639557123
-0.06937524872 0.1184359897 0.03606751243
-0.0689783878 0.1184682648 0.03573945054
-0.06858156706 0.1185005519 0.03541130102
-0.06813040923 0.1185329032 0.03519820679
-0.06773354532 0.1185651856 0.03487014799
-0.06728238749 0.118597537 0.03465705375
-0.06688552357 0.1186298194 0.03432899495
-0.06654300142 0.11866203 0.03388587857
-0.06614613919 0.1186943123 0.03355782056
-0.06574927498 0.1187265873 0.03322976124
-0.06535241435 0.1187588698 0.03290169988
-0.06495563208 0.118792152 0.03257362001
-0.06455876984 0.1188244343 0.032245562
-0.06416190564 0.1188567093 0.03191750268
-0.063765045 0.1188889918 0.03158944132
-0.06342251957 0.1189212023 0.0311463275
-0.06307995453 0.1189534157 0.03070330236
-0.06273742911 0.1189856263 0.03026018854
-0.06244915937 0.1190177632 0.0297021991
-0.06216093282 0.1190499047 0.02914411895
-0.06187270459 0.1190820464 0.02858603799
-0.06147584235 0.1191143286 0.02825797999
-0.06113335568 0.1191475418 0.02781493634
-0.06079079035 0.1191797478 0.02737191068
-0.06039392643 0.1192120302 0.02704385188
-0.05999706551 0.1192443052 0.02671578999
-0.05960024477 0.1192765923 0.02638764047
-0.05914908694 0.1193089437 0.02617454624
-0.05869792827 0.1193412951 0.02596145161
-0.05819243082 0.1193737109 0.02586341148
-0.05763267965 0.1194062078 0.02588024828
-0.05707292848 0.1194387046 0.02589708508
-0.0562958701 0.1194704733 0.02637388878
-0.05530166518 0.1195035279 0.02731062498
-0.05457898433 0.1195362348 0.02767244435
-0.05391056032 0.1195678699 0.02791922977
-0.05313353993 0.119600641 0.02839610739
-0.05241085879 0.1196333404 0.02875792624
-0.05179676884 0.1196659016 0.02888981754
-0.05118272208 0.1196984676 0.02902161811
-0.05056859526 0.1197300338 0.0291534364
-0.05011743659 0.1197623852 0.02894034177
-0.04961198073 0.1197948056 0.02884221428
-0.04910648328 0.1198272214 0.02874417414
-0.0486010293 0.1198596493 0.02864604381
-0.04809557385 0.1198920697 0.02854791651
-0.04764441518 0.1199244211 0.02833482189
-0.04713896092 0.1199568416 0.02823669103
-0.04668780225 0.119989193 0.0280235964
-0.04623664358 0.1200215445 0.02781050178
-0.04578548532 0.1200538959 0.02759740735
-0.04533432644 0.1200862473 0.02738431262
-0.04488316798 0.1201185987 0.02717121809
-0.04448630491 0.1201508811 0.02684315969
-0.04398085064 0.1201833016 0.02674502883
-0.04347539687 0.1202157295 0.0266468986
-0.04296989942 0.1202481453 0.02654885847
-0.04262737494 0.1202803558 0.0261057451
-0.04228480914 0.1203125693 0.02566271959
-0.0419965818 0.1203447109 0.02510463906
-0.04143678724 0.1203771956 0.0251215661
-0.04120285554 0.1204092681 0.02444852182
-0.03785671273 0.1204751444 0.02919651805
-0.03762281939 0.1205082122 0.02852354337
-0.03469787757 0.1205204645 0.03237164224
-0.03399056714 0.1205449047 0.03269966417
-0.0325660535 0.1205452268 0.03454247108
-0.03206365533 0.1205759891 0.03443761818
-0.03145882381 0.1206036002 0.03454915623
-0.03029041624 0.1206118213 0.03585093983
-0.02953190999 0.1206346844 0.0362871134
-0.02867088887 0.120653389 0.03693969865
-0.02775867103 0.1206705092 0.03770043473
-0.0271026003 0.1206965385 0.03792021503
-0.02634405559 0.1207184065 0.03835631894
-0.0256367085 0.1207418516 0.03868426796
-0.02498063777 0.120767881 0.03890404827
-0.02417085356 0.1207881598 0.03944839391
-0.02351478283 0.1208141891 0.03966817421
-0.02280751739 0.1208386341 0.03999610217
-0.02225384268 0.1208668268 0.03999942279
-0.02159781325 0.1208928533 0.04021911521
-0.02099294015 0.1209204598 0.04033074062
-0.02033687226 0.1209454911 0.04055036339
-0.01968080153 0.1209715204 0.04077014369
-0.01912716415 0.1210007009 0.04077353305
-0.01852229417 0.1210273168 0.04088500144
-0.01796870186 0.1210565096 0.04088829724
-0.01736382528 0.1210841084 0.04099992885
-0.01686147302 0.1211148829 0.04089498279
-0.01625664066 0.1211424941 0.04100652044
-0.01580548283 0.1211748454 0.04079342621
-0.01520056694 0.1212014491 0.04090498777
-0.01459573626 0.1212290601 0.04101652622
-0.01404214283 0.1212582456 0.0410198211
-0.01348854816 0.121287438 0.04102312401
-0.01293487497 0.1213156311 0.04102643712
-0.01238128001 0.1213448161 0.04102973951
-0.01177644934 0.1213724271 0.04114127796
-0.01122281141 0.1214016152 0.04114466744
-0.01056670277 0.1214266418 0.04136437796
-0.009961870411 0.121454253 0.04147591561
-0.009408278658 0.1214834383 0.04147921129
-0.008803446301 0.1215110494 0.04159074894
-0.008147337663 0.1215360761 0.04181045947
-0.007593741317 0.1215652686 0.04181376159
-0.007040108265 0.1215944569 0.04181714514
-0.006486511632 0.121623642 0.04182044674
-0.005881642492 0.1216502578 0.04193191553
-0.005379245451 0.1216810274 0.04182706355
-0.00487684673 0.1217117972 0.04172221078
-0.004425688899 0.1217441486 0.04150911655
-0.003974529388 0.1217765 0.04129602152
-0.003472135259 0.1218072626 0.04119116231
-0.002918538913 0.1218364551 0.04119446443
-0.002364947447 0.1218656479 0.04119776062
-0.001913787936 0.1218979994 0.04098466559
-0.001360112934 0.1219261846 0.04098798569
-0.0009089534228 0.1219585361 0.04077489067
-0.0004577955923 0.1219908875 0.04056179644
-6.636081073e-06 0.122023239 0.04034870141
0.0003932421076 0.1220581746 0.04002743589
0.0007931624087 0.1220921078 0.03970609862
0.001193127494 0.1221260362 0.03938485542
0.001593047795 0.1221599694 0.03906351814
0.002044203945 0.1221923207 0.0388504247
0.002495363456 0.1222246722 0.03863732968
0.002946522968 0.1222570236 0.03842423465
0.003448921689 0.1222877934 0.03831938188
0.003900077839 0.1223201447 0.03810628844
0.004402431776 0.1223509193 0.03800134159
0.004956108458 0.1223791047 0.0380046609
0.005407264608 0.1224114559 0.03779156746
0.005858424119 0.1224438074 0.03757847243
0.006258305669 0.1224787432 0.03725720533
0.00670946518 0.1225110947 0.0370441103
0.00710938212 0.1225450277 0.03672277461
0.007611780842 0.1225757975 0.03661792184
0.008011701143 0.1226097307 0.03629658456
0.008411666228 0.1226436591 0.03597534136
0.008811583168 0.122677592 0.03565400567
0.009160305844 0.1227131025 0.0352245135
0.009560229057 0.1227470428 0.03490318346
0.009908906787 0.1227825575 0.03447360552
0.010257591 0.1228190632 0.034044183
0.01055507738 0.1228561624 0.03350645582
0.01090376167 0.122891677 0.03307688301
0.01125248098 0.1229271873 0.03264739243
0.01144745048 0.1229684452 0.03189325039
0.01169374243 0.1230071213 0.03124737504
0.01193998988 0.1230457949 0.03060140508
0.01223743444 0.1230838891 0.03006374914
0.01248368189 0.1231225627 0.02941777918
0.0127298906 0.1231622389 0.0287718794
0.01292493678 0.1232024969 0.02801775666
0.01306866706 0.1232453366 0.02715537237
0.0133149593 0.1232840053 0.0265094965
0.01350996726 0.123324268 0.02575528481
0.01370493339 0.1233655257 0.02500114436
0.01384870846 0.1234083605 0.02413885415
0.01404371671 0.1234486158 0.02338464194
0.01429000546 0.1234872923 0.02273875987
0.01438253796 0.1235317086 0.021768229
0.01462878541 0.1235703822 0.02112225904
0.01446513125 0.1236237052 0.01961067957
0.01460893982 0.1236655447 0.01874831794
0.01444536731 0.1237178678 0.01723675953
0.01371817556 0.1237895856 0.01453486486
0.01406689983 0.1238250958 0.01410537605
0.01410819312 0.1238710939 0.01302660292
0.01420076744 0.1239145152 0.01205600081
-0.1055578657 0.1169645403 0.03842936719
-0.104672214 0.1169964544 0.03913610192
-0.1036236741 0.117028583 0.04018773185
-0.1024122111 0.1170599307 0.04158418892
-0.1017980819 0.1170914968 0.04171601016
-0.1010753999 0.1171241963 0.04207782862
-0.1003526797 0.117155908 0.04243957793
-0.09979293081 0.1171883972 0.04245641541
-0.0991788832 0.1172209632 0.04258821559
-0.09867334645 0.1172523839 0.0424901054
-0.09811359443 0.1172848808 0.04250694181
-0.09684779264 0.1173162929 0.04401845338
-0.0959621841 0.1173482117 0.04472509738
-0.09485934898 0.1173804168 0.04589169161
-0.09386506937 0.1174114735 0.04682828917
-0.09297941793 0.117443395 0.04753502442
-0.09225677754 0.117476099 0.04789675551
-0.09164264988 0.1175076653 0.0480285734
-0.09091996966 0.1175403644 0.0483903968
-0.09025154482 0.1175719996 0.04863718182
-0.08963749721 0.1176045656 0.048768982
-0.08907770361 0.117637058 0.04878590576
-0.0884636209 0.1176686285 0.04891763788
-0.08790386861 0.117701118 0.04893447377
-0.0873984135 0.1177335386 0.04883634252
-0.08683862326 0.1177660308 0.04885326787
-0.08633316656 0.1177984512 0.04875513998
-0.08582767299 0.1178298765 0.04865693908
-0.08532217499 0.1178622999 0.04855889906
-0.08487101884 0.1178946511 0.04834580563
-0.08441985933 0.1179270026 0.0481327106
-0.08402303831 0.1179592822 0.04780456056
-0.0835718788 0.1179916337 0.04759146554
-0.08312072265 0.118023985 0.0473783721
-0.08272389719 0.1180572626 0.04705038295
-0.08232703487 0.1180895452 0.04672232079
-0.08193017432 0.1181218273 0.04639426358
-0.08158764889 0.1181540379 0.04595114976
-0.08119078658 0.1181863205 0.0456230876
-0.08084821797 0.1182185264 0.0451800645
-0.08050569307 0.1182517348 0.04473710981
-0.08010887234 0.1182840219 0.04440896029
-0.07976630532 0.118316228 0.04396593383
-0.07942373671 0.1183484339 0.04352291074
-0.079081255 0.118381647 0.04307986532
-0.07879298358 0.118413784 0.04252187509
-0.07845045816 0.1184459946 0.04207876127
-0.0781078948 0.1184782078 0.04163573692
-0.07776540784 0.1185114136 0.04119269276
-0.07742284111 0.1185436271 0.04074966683
-0.0770802725 0.118575833 0.04030664373
-0.07673770914 0.1186080462 0.03986361938
-0.07628654963 0.1186403977 0.03965052436
-0.07588976707 0.1186736726 0.03932244397
-0.07543860756 0.1187060241 0.03910934894
-0.07498745141 0.1187383753 0.03889625551
-0.0745362919 0.1187707268 0.03868316048
-0.07403075543 0.1188021549 0.03858505082
-0.07357959928 0.1188345062 0.03837195738
-0.07307414418 0.1188669268 0.03827382613
-0.07262298467 0.1188992783 0.0380607311
-0.07217182516 0.1189316297 0.03784763608
-0.07166637181 0.1189640499 0.03774950978
-0.0712152123 0.1189964014 0.03753641475
-0.07076405279 0.1190287529 0.03732331973
-0.07036719215 0.1190610353 0.03699525836
-0.06997032824 0.1190933177 0.03666719956
-0.06951917041 0.1191256691 0.03645410533
-0.06912238785 0.119158944 0.03612602494
-0.06872552561 0.1191912263 0.03579796693
-0.06832866498 0.1192235087 0.03546990556
-0.06787750547 0.1192558602 0.03525681054
-0.06753493854 0.119288066 0.03481378824
-0.06708377903 0.1193204175 0.03460069321
-0.06674125717 0.1193526355 0.03415757735
-0.06634439296 0.1193849105 0.03382951803
-0.06594756919 0.119418188 0.03350152968
-0.06555070687 0.1194504706 0.03317346751
-0.06520818313 0.119482681 0.03273035449
-0.06481131921 0.1195149634 0.03240229569
-0.06441445857 0.1195472459 0.03207423432
-0.06401759605 0.1195795207 0.0317461758
-0.06362073213 0.1196118031 0.031418117
-0.06327824874 0.1196450164 0.03097507079
-0.06298997732 0.1196771534 0.03041708056
-0.06270178764 0.11971029 0.02985907341
-0.06235922063 0.119742496 0.02941604696
-0.06201665558 0.1197747094 0.02897302181
-0.06167413016 0.11980692 0.028529908
-0.06127726792 0.1198392023 0.02820184999
-0.06093473966 0.119872411 0.02775889371
-0.06059221592 0.1199046214 0.02731578069
-0.06024965059 0.1199368274 0.02687275502
-0.05985278667 0.1199691098 0.02654469622
-0.05951030328 0.120002323 0.02610165001
-0.05911343907 0.120034598 0.02577359069
-0.058716576 0.1200668803 0.02544553229
-0.05826541733 0.1200992318 0.02523243766
-0.05770566859 0.1201317287 0.0252492715
-0.05720013268 0.1201631494 0.02515116171
-0.05664038122 0.1201956388 0.025167998
-0.05580906912 0.1202274884 0.02575967862
-0.05486912293 0.120259479 0.02658137804
-0.05414640173 0.120291183 0.02694313059
-0.05336942528 0.120323959 0.02741991374
-0.05253811318 0.1203558086 0.02801159436
-0.05197836172 0.120388298 0.02802843065
-0.0513642333 0.1204198641 0.02816025229
-0.05080448373 0.1204523611 0.02817708573
-0.05024473311 0.1204848505 0.02819392241
-0.04973923595 0.1205172737 0.0280958828
-0.0492337428 0.1205486991 0.02799768209
-0.04872828736 0.1205811194 0.0278995548
-0.04827712869 0.1206134708 0.02768646017
-0.04782597002 0.1206458223 0.02747336554
-0.04732051575 0.1206782428 0.02737523469
-0.04686935708 0.1207105942 0.02716214006
-0.04641819841 0.1207429456 0.02694904543
-0.04596704016 0.120775297 0.026735951
-0.04551588149 0.1208076485 0.02652285637
-0.04511901841 0.1208399308 0.02619479797
-0.04461356415 0.1208723513 0.02609666712
-0.04416240569 0.1209047027 0.02588357259
-0.0438198398 0.1209369162 0.02544054705
-0.04336868124 0.1209692676 0.02522745247
-0.04291752262 0.121001619 0.02501435786
-0.042466364 0.1210339704 0.02480126326
-0.04206953944 0.121067248 0.02447327454
-0.04161838082 0.1210995994 0.02426017993
-0.04116722226 0.1211319508 0.02404708535
-0.04077040208 0.1211642304 0.02371893571
-0.0405364273 0.1211962983 0.0230459822
-0.03314569693 0.1213334441 0.03167514713
-0.03187485856 0.1213375085 0.03319316362
-0.03173108593 0.1213803434 0.03233087045
-0.02984543417 0.1213634437 0.03514737191
-0.02888194066 0.1213779871 0.03601627742
-0.02822582917 0.1214030137 0.03623599071
-0.027262374 0.1214185597 0.03710496619
-0.02665750297 0.1214451679 0.03721643783
-0.02600143196 0.1214711898 0.03743621761
-0.02534532277 0.121496224 0.03765592826
-0.02453558363 0.121516515 0.03820018034
-0.02367452334 0.121534217 0.03885269523
-0.02296721624 0.1215576665 0.03918056025
-0.02236238472 0.1215852776 0.0392920983
-0.02175751445 0.121611886 0.03940356618
-0.02110144373 0.1216379154 0.03962334648
-0.02044533425 0.1216629421 0.03984305661
-0.01989174194 0.1216921349 0.0398463524
-0.01923563331 0.1217171616 0.04006606293
-0.01868199934 0.1217453588 0.04006929579
-0.01817960117 0.1217761211 0.0399644429
-0.01767720564 0.1218068912 0.0398595834
-0.01712361098 0.1218360836 0.03986288632
-0.01656997937 0.1218642813 0.03986611206
-0.01596514841 0.1218918849 0.03997764999
-0.01530903977 0.1219169115 0.04019736052
-0.01470420741 0.1219445227 0.04030889817
-0.0140992932 0.1219711262 0.04042046052
-0.01354570005 0.1220003191 0.04042375592
-0.01294083091 0.1220269349 0.04053522471
-0.01238723428 0.12205612 0.04053852631
-0.01178236514 0.1220827358 0.04064999511
-0.01117753249 0.1221103396 0.04076153224
-0.01057266335 0.1221369554 0.04087300103
-0.01001902513 0.122166136 0.04087638999
-0.009414194458 0.122193747 0.04098792844
-0.008860564528 0.1222219445 0.04099115498
-0.008255728684 0.1222495479 0.04110269883
-0.007650859544 0.1222761637 0.04121416762
-0.007097224524 0.1223053447 0.04121754986
-0.006594869069 0.1223361188 0.04111261052
-0.006041192674 0.1223643116 0.04111593035
-0.005487601207 0.1223935044 0.04111922654
-0.005036441696 0.1224258559 0.04090613152
-0.004534044368 0.1224566181 0.04080127902
-0.004031645647 0.1224873878 0.04069642625
-0.003529254927 0.1225171671 0.04059141053
-0.002975618676 0.122546355 0.04059480081
-0.002422025242 0.1225755405 0.04059809569
-0.001919589737 0.1226053149 0.04049317406
-0.001417235801 0.1226360895 0.0403882272
-0.0009148387599 0.1226668592 0.04028337522
-0.0005149184588 0.1227007924 0.03996203795
-6.375894757e-05 0.1227331439 0.03974894292
0.0003873972023 0.1227654951 0.03953584948
0.0007360846137 0.1228020004 0.03910643369
0.001136004628 0.1228359411 0.03878509693
0.001587164139 0.1228682926 0.0385720019
0.001987125863 0.1229022207 0.03825076029
0.002438285374 0.1229345722 0.03803766527
0.002889444886 0.1229669237 0.03782457024
0.003289361825 0.1230008567 0.03750323455
0.003740521336 0.1230332081 0.03729013953
0.004242920058 0.1230639779 0.03718528675
0.004591601149 0.1230994929 0.03675570722
0.005042757299 0.1231318441 0.03654261378
0.00544268392 0.1231667677 0.03622144024
0.005893843431 0.1231991192 0.03600834521
0.006396235832 0.1232288986 0.03590332871
0.006898631192 0.1232596681 0.03579847752
0.007298551493 0.1232936013 0.03547714024
0.007749711004 0.1233259528 0.03526404522
0.008149634265 0.1233608761 0.03494287326
0.008549554566 0.1233948094 0.03462153598
0.00889823537 0.1234303317 0.03419195697
0.009298200455 0.1234642601 0.03387071378
0.009646839721 0.12350077 0.03344120549
0.009995565309 0.1235362876 0.03301172056
0.0102417743 0.1235759563 0.03236582025
0.01064173619 0.123609885 0.03204457034
0.01078546311 0.1236527245 0.03118218764
0.0110317166 0.1236923958 0.03053638193
0.01132920326 0.1237294877 0.02999865423
0.01147297177 0.1237723226 0.02913635889
0.01182165577 0.1238078446 0.0287067866
0.01201666685 0.123849098 0.02795273192
0.01210916425 0.1238945098 0.02698226912
0.01230416884 0.1239347723 0.02622805902
0.01260161705 0.1239728593 0.02569040097
0.01279662813 0.1240141128 0.02493634629
0.01288916398 0.1240585293 0.02396581383
0.01303293569 0.1241013639 0.02310352521
0.01327914439 0.1241410401 0.02245762543
0.01347415547 0.1241822935 0.02170357075
0.01356668797 0.1242267098 0.02073303988
0.01381289667 0.124266386 0.0200871401
0.0136492857 0.1243197043 0.01857565135
0.01348567473 0.1243730226 0.0170641626
0.01332205879 0.1244263409 0.01555267208
0.01326088334 0.124476493 0.01425757659
0.01360956414 0.1245120154 0.01382799758
0.01334351793 0.1245684925 0.01210011505
-0.1060289914 0.1176698247 0.0381255722
-0.1051433444 0.1177007483 0.03883214655
-0.1042577 0.1177316716 0.03953872417
-0.10310053 0.1177629505 0.04082021419
-0.1021605468 0.1177939381 0.04164184631
-0.1014921651 0.117825578 0.04188854061
-0.1008237787 0.1178582084 0.04213539529
-0.1001553539 0.1178898436 0.04238218031
-0.09959556675 0.1179213451 0.04239894865
-0.09881855071 0.1179531185 0.04287566122
-0.097389819 0.1179837501 0.04473199675
-0.09661276655 0.1180145353 0.04520864514
-0.09599871894 0.1180471013 0.04534044532
-0.09516740571 0.1180789435 0.04593212503
-0.0943903499 0.118109729 0.04640877183
-0.09345040594 0.1181417119 0.04723047192
-0.09267335013 0.1181724973 0.04770711872
-0.09195062968 0.1182042016 0.04806886751
-0.09128228648 0.1182368367 0.04831563147
-0.09066816059 0.1182684026 0.0484474543
-0.09005407452 0.1182999734 0.04857918483
-0.08949428064 0.1183324583 0.04859610808
-0.08888019793 0.1183640289 0.04872784019
-0.08826610714 0.1183965902 0.04885973109
-0.08770631638 0.1184280845 0.04887649732
-0.08720086156 0.1184605125 0.04877836659
-0.08664111262 0.1184930017 0.04879520407
-0.0861356578 0.1185254297 0.04869707334
-0.08568449829 0.1185577812 0.04848397831
-0.085179 0.1185901971 0.04838593778
-0.08472784385 0.1186225484 0.04817284434
-0.08433102312 0.1186548354 0.04784469482
-0.08387986361 0.1186871869 0.0476315998
-0.08342870746 0.1187195382 0.04741850636
-0.08303184325 0.1187518132 0.04709044704
-0.08263498093 0.1187840957 0.04676238488
-0.08223811702 0.1188163781 0.04643432608
-0.08184125617 0.1188486529 0.04610626835
-0.08149872792 0.1188818616 0.04566331206
-0.08110190718 0.1189141487 0.04533516254
-0.08075934017 0.1189463547 0.04489213609
-0.08036251808 0.1189796321 0.04456414853
-0.08001995107 0.1190118382 0.04412112207
-0.07967742593 0.1190440562 0.04367800877
-0.07933490075 0.1190772572 0.04323505356
-0.07899233242 0.1191094705 0.04279203098
-0.07864984706 0.1191426765 0.04234898346
-0.07830727874 0.1191748898 0.04190596088
-0.07801909233 0.1192080264 0.04134795117
-0.07762222842 0.1192403088 0.04101989237
-0.0772796614 0.1192725149 0.04057686592
-0.07693713314 0.1193057236 0.04013390963
-0.0765402723 0.1193379983 0.0398058519
-0.07614345157 0.1193702854 0.03947770238
-0.07569229206 0.1194026369 0.03926460736
-0.07524113591 0.1194349881 0.03905151392
-0.0747899764 0.1194673396 0.03883841889
-0.07428447811 0.1194997555 0.03874037836
-0.0738333186 0.119532107 0.03852728334
-0.07332786714 0.1195645348 0.03842915419
-0.07287670763 0.1195968863 0.03821605917
-0.07237121246 0.1196283115 0.03811786163
-0.07192005295 0.119660663 0.0379047666
-0.0714688968 0.1196930142 0.03769167316
-0.07096344169 0.1197254348 0.03759354191
-0.07056657946 0.1197577171 0.03726548391
-0.07011541995 0.1197900685 0.03705238888
-0.06971859777 0.1198233462 0.03672439717
-0.06932173357 0.1198556212 0.03639633785
-0.06892491452 0.1198879082 0.03606818912
-0.0685280506 0.1199201906 0.03574013032
-0.06813118968 0.1199524656 0.03541206843
-0.06773436422 0.1199857432 0.03508407928
-0.06733750199 0.1200180255 0.03475602128
-0.06694068125 0.1200503126 0.03442787176
-0.06654382033 0.1200825876 0.03409980987
-0.06620129215 0.120115796 0.03365685774
-0.06580442983 0.1201480786 0.03332879558
-0.06540756731 0.1201803534 0.03300073705
-0.06501070339 0.1202126358 0.03267267825
-0.06461388434 0.1202449228 0.03234452953
-0.06427135579 0.1202781241 0.03190157272
-0.06387449356 0.1203104064 0.03157351472
-0.06353192683 0.1203426199 0.03113048878
-0.06318944155 0.1203758255 0.03068744541
-0.06290117014 0.1204079625 0.03012945518
-0.06255868674 0.1204411757 0.02968640897
-0.06216182451 0.120473458 0.02935835096
-0.0618192575 0.1205056641 0.02891532451
-0.06142239526 0.1205379464 0.0285872665
-0.0610799083 0.1205711522 0.02814422234
-0.06073734326 0.1206033655 0.0277011972
-0.06039481471 0.1206365668 0.02725824039
-0.06010658656 0.1206687082 0.0267001636
-0.0597640583 0.1207019169 0.02625720731
-0.05942149297 0.1207341228 0.02581418165
-0.05907896867 0.1207663408 0.02537106875
-0.05862781 0.1207986922 0.02515797412
-0.05823098539 0.1208319697 0.02482998537
-0.05777982672 0.1208643212 0.02461689074
-0.05732866805 0.1208966726 0.02440379612
-0.05682317532 0.1209280979 0.02430559561
-0.05626338227 0.1209605828 0.02432251925
-0.0557036311 0.1209930797 0.02433935605
-0.05503520793 0.1210247147 0.02458614187
-0.05382370393 0.1210550674 0.0259825281
-0.05288376058 0.1210860598 0.02680406998
-0.05221537504 0.1211186902 0.02705092505
-0.05165558671 0.1211501846 0.02706768832
-0.05104149676 0.1211827458 0.02719957962
-0.05053600403 0.1212141711 0.02710137911
-0.05003054846 0.1212465989 0.02700325214
-0.04947075541 0.1212790838 0.02702017578
-0.04896530185 0.1213115117 0.02692204565
-0.04845980753 0.1213429369 0.0268238485
-0.04800864885 0.1213752883 0.02661075387
-0.04755749018 0.1214076397 0.02639765924
-0.04705203592 0.1214400603 0.02629952839
-0.04660087767 0.1214724117 0.02608643396
-0.04620401438 0.121504694 0.02575837546
-0.04575285592 0.1215370454 0.02554528093
-0.04530169725 0.1215693969 0.0253321863
-0.04490487424 0.1216026746 0.02500419419
-0.04450801108 0.1216349495 0.02467613536
-0.04405685241 0.1216673009 0.02446304074
-0.04360569385 0.1216996523 0.02424994616
-0.04310023995 0.1217320803 0.02415181586
-0.04259474567 0.1217635054 0.02405361874
-0.04214358708 0.1217958568 0.02384052415
-0.04163813292 0.1218282773 0.02374239334
-0.04118697425 0.1218606288 0.02352929872
-0.04073581579 0.1218929802 0.02331620419
-0.04033895271 0.1219252625 0.02298814578
-0.0399421297 0.1219585402 0.02266015367
-0.03959960532 0.1219907507 0.02221704035
-0.03762771231 0.1220190925 0.02522299753
-0.03695937066 0.1220517349 0.02546976261
-0.03677973105 0.1220847217 0.02468191099
-0.02935008111 0.1221215141 0.0345514282
-0.0283865424 0.1221360526 0.03542042759
-0.02752552559 0.1221537667 0.03607285227
-0.02676690054 0.1221746275 0.03650897337
-0.02616206742 0.1222022384 0.03662051478
-0.02565963108 0.1222320129 0.03651559275
-0.02490108797 0.122253881 0.03695169331
-0.02414254325 0.122275749 0.03738779722
-0.02343515694 0.1222981987 0.03771568034
-0.02267661383 0.1223200668 0.0381517809
-0.02202050275 0.1223450933 0.03837149439
-0.02141563248 0.1223717018 0.03848296226
-0.02075952329 0.1223967359 0.03870267291
-0.0201546499 0.1224243351 0.0388142978
-0.01954977672 0.1224509506 0.03892577292
-0.01894490645 0.1224775591 0.03903724079
-0.01834003619 0.1225041675 0.03914870867
-0.01778639994 0.1225333554 0.03915209894
-0.01718152911 0.1225599713 0.03926356694
-0.01657665969 0.1225865797 0.03937503521
-0.01602306654 0.1226157726 0.03937833061
-0.01541815233 0.1226423762 0.03948989297
-0.01476204201 0.1226674029 0.0397096027
-0.01415721133 0.122695014 0.03982114114
-0.01360357944 0.1227232042 0.03982436637
-0.01304994318 0.1227523921 0.03982775664
-0.01244507404 0.1227790079 0.03993922544
-0.01184020294 0.1228056164 0.04005069291
-0.0111840943 0.1228306431 0.04027040344
-0.01063045637 0.1228598311 0.04027379292
-0.01007682644 0.1228880287 0.04027701946
-0.009471952129 0.1229146368 0.04038849366
-0.008918319077 0.1229438251 0.04039187721
-0.008364722444 0.1229730102 0.04039517881
-0.007811050928 0.1230012032 0.04039849271
-0.007257454582 0.1230303958 0.04040179483
-0.006703824365 0.1230585859 0.04040502085
-0.006201427324 0.1230893555 0.04030016887
-0.005647750929 0.1231175483 0.0403034887
-0.005145398386 0.1231483154 0.04019854212
-0.004642999664 0.1231790852 0.04009368935
-0.004140602624 0.1232098548 0.03998883737
-0.003638210223 0.1232396342 0.03988382086
-0.003084573972 0.1232688221 0.03988721114
-0.002530942074 0.1232970123 0.03989043636
-0.002028545033 0.123327782 0.03978558438
-0.001526146312 0.1233585517 0.03968073161
-0.001074988481 0.1233909031 0.03946763738
-0.00057258976 0.1234216729 0.03936278461
-0.0002239120304 0.1234571876 0.03893320666
0.0002784866909 0.1234879573 0.03882835389
0.000678406992 0.1235218906 0.03850701661
