# .PCD v.7 - Point Cloud Data file format
VERSION .7
FIELDS x y z rgb
SIZE 4 4 4 4
TYPE F F F U
COUNT 1 1 1 1
WIDTH 1292
HEIGHT 1
VIEWPOINT 0 0 0 1 0 0 0
POINTS 1292
DATA ascii
0.195252 -0.264638 1.697800 11809480
0.186503 -0.255959 1.724094 11809480
0.178134 -0.246925 1.737102 11809480
0.184131 -0.238984 1.762768 11809480
0.183160 -0.257395 1.751521 11809480
0.196873 -0.253209 1.567342 11809480
0.194987 -0.269863 1.582555 11809480
0.194644 -0.254167 1.585627 11809480
0.196557 -0.253016 1.583906 11809480
0.192415 -0.255125 1.603912 11809480
0.191301 -0.255604 1.613055 11809480
0.174406 -0.269653 1.632710 11809480
0.192581 -0.254999 1.625292 11809480
0.187957 -0.257040 1.640483 11809480
0.171017 -0.260020 1.629521 11809480
0.185728 -0.257998 1.658768 11809480
0.184614 -0.258477 1.667910 11809480
0.176030 -0.269506 1.653374 11809480
0.182385 -0.259435 1.686196 11809480
0.182024 -0.259404 1.697282 11809480
0.180156 -0.260392 1.704481 11809480
0.179042 -0.260871 1.713623 11809480
0.177927 -0.261350 1.722766 11809480
0.167263 -0.241355 1.727725 11809480
0.175698 -0.262308 1.741051 11809480
0.179537 -0.269569 1.748120 11809480
0.188297 -0.258601 1.566014 11809480
0.194979 -0.253773 1.575847 11809480
0.185581 -0.247611 1.578746 11809480
0.184954 -0.260037 1.593442 11809480
0.190354 -0.243081 1.603863 11809480
0.197184 -0.253641 1.589710 11809480
0.181412 -0.260367 1.629143 11809480
0.180496 -0.261953 1.630012 11809480
0.173244 -0.262344 1.627672 11809480
0.178267 -0.262911 1.648297 11809480
0.165951 -0.278759 1.653492 11809480
0.176038 -0.263868 1.666583 11809480
0.174924 -0.264347 1.675725 11809480
0.177308 -0.270396 1.681464 11809480
0.168074 -0.266753 1.711445 11809480
0.171580 -0.265784 1.703153 11809480
0.181248 -0.246509 1.698806 11809480
0.169540 -0.274870 1.711235 11809480
0.154182 -0.258761 1.715342 11809480
0.171617 -0.277497 1.732287 11809480
0.164494 -0.257112 1.739010 11809480
0.179722 -0.263992 1.564687 11809480
0.169727 -0.265482 1.571852 11809480
0.177493 -0.264950 1.582972 11809480
0.182294 -0.257019 1.605668 11809480
0.175264 -0.265908 1.601257 11809480
0.174149 -0.266386 1.610399 11809480
0.173035 -0.266865 1.619542 11809480
0.171920 -0.267344 1.628685 11809480
0.185898 -0.269784 1.646548 11809480
0.169692 -0.268302 1.646970 11809480
0.177820 -0.252920 1.661753 11809480
0.171122 -0.272955 1.671185 11809480
0.166348 -0.269738 1.674397 11809480
0.165234 -0.270217 1.683540 11809480
0.164119 -0.270696 1.692683 11809480
0.174982 -0.271058 1.685641 11809480
0.161890 -0.271654 1.710968 11809480
0.160776 -0.272133 1.720110 11809480
0.159661 -0.272612 1.729253 11809480
0.154011 -0.252006 1.724394 11809480
0.157432 -0.273569 1.747538 11809480
0.190195 -0.272523 1.550403 11809480
0.160427 -0.263386 1.570170 11809480
0.168917 -0.270341 1.581644 11809480
0.164960 -0.260955 1.573962 11809480
0.173079 -0.272665 1.586077 11809480
0.165574 -0.271778 1.609072 11809480
0.172548 -0.277576 1.636415 11809480
0.161370 -0.272611 1.623660 11809480
0.155483 -0.283235 1.654278 11809480
0.161116 -0.273693 1.645642 11809480
0.160001 -0.274172 1.654785 11809480
0.158887 -0.274651 1.663927 11809480
0.192428 -0.275715 1.675922 11809480
0.156658 -0.275609 1.682212 11809480
0.162169 -0.267060 1.690413 11809480
0.154429 -0.276566 1.700498 11809480
0.148437 -0.289000 1.683106 11809480
0.152200 -0.277524 1.718783 11809480
0.151086 -0.278003 1.727925 11809480
0.149971 -0.278482 1.737068 11809480
0.148857 -0.278961 1.746210 11809480
0.170052 -0.264389 1.561097 11809480
0.161456 -0.275254 1.571174 11809480
0.151571 -0.283834 1.594404 11809480
0.155829 -0.270104 1.587052 11809480
0.158112 -0.276690 1.598601 11809480
0.161753 -0.269538 1.617762 11809480
0.141618 -0.280953 1.622346 11809480
0.165507 -0.279937 1.612347 11809480
0.158489 -0.279381 1.634239 11809480
0.153499 -0.271475 1.649275 11809480
0.151426 -0.279564 1.653457 11809480
0.145309 -0.281410 1.662800 11809480
0.137701 -0.282554 1.667242 11809480
0.137366 -0.284032 1.686014 11809480
0.151639 -0.300364 1.701367 11809480
0.136273 -0.260328 1.696283 11809480
0.144739 -0.282437 1.708312 11809480
0.151973 -0.281129 1.712820 11809480
0.137326 -0.278145 1.725619 11809480
0.141396 -0.283873 1.735740 11809480
0.143090 -0.285689 1.747688 11809480
0.162570 -0.274775 1.562031 11809480
0.161397 -0.275279 1.571655 11809480
0.178762 -0.282602 1.582202 11809480
0.151888 -0.255023 1.596126 11809480
0.150027 -0.273520 1.601212 11809480
0.168805 -0.268851 1.599526 11809480
0.162146 -0.286294 1.625710 11809480
0.154358 -0.278303 1.629397 11809480
0.150059 -0.262318 1.631431 11809480
0.157026 -0.289202 1.658503 11809480
0.149558 -0.276201 1.647206 11809480
0.149666 -0.280320 1.667893 11809480
0.142680 -0.266994 1.663701 11809480
0.147320 -0.281328 1.687140 11809480
0.146147 -0.281832 1.696764 11809480
0.150282 -0.277702 1.701038 11809480
0.137057 -0.277743 1.700755 11809480
0.142716 -0.277407 1.716604 11809480
0.141454 -0.283848 1.735259 11809480
0.147764 -0.293043 1.745342 11809480
0.149685 -0.247418 1.557677 11809480
0.156415 -0.267308 1.571465 11809480
0.155242 -0.267812 1.581089 11809480
0.154069 -0.268316 1.590713 11809480
0.151781 -0.276161 1.590582 11809480
0.151723 -0.269324 1.609960 11809480
0.150550 -0.269829 1.619584 11809480
0.141465 -0.264107 1.622905 11809480
0.148204 -0.270837 1.638831 11809480
0.147031 -0.271341 1.648455 11809480
0.145857 -0.271845 1.658079 11809480
0.144684 -0.272349 1.667703 11809480
0.147039 -0.270369 1.671437 11809480
0.139689 -0.273560 1.694879 11809480
0.145636 -0.274986 1.686876 11809480
0.139992 -0.274365 1.706198 11809480
0.138819 -0.274869 1.715822 11809480
0.144049 -0.263328 1.724404 11809480
0.136472 -0.275877 1.735069 11809480
0.135299 -0.276381 1.744693 11809480
0.152844 -0.276983 1.584678 11809480
0.151434 -0.259337 1.571275 11809480
0.147808 -0.264102 1.601516 11809480
0.149087 -0.260346 1.590523 11809480
0.137299 -0.261019 1.602675 11809480
0.146741 -0.261354 1.609770 11809480
0.152220 -0.268826 1.617912 11809480
0.155974 -0.278995 1.650922 11809480
0.152677 -0.267444 1.631410 11809480
0.125544 -0.268668 1.621454 11809480
0.149459 -0.270862 1.660937 11809480
0.130963 -0.262057 1.674703 11809480
0.148032 -0.268922 1.680169 11809480
0.137356 -0.265386 1.686761 11809480
0.129897 -0.270237 1.709216 11809480
0.135010 -0.266394 1.706008 11809480
0.125931 -0.262678 1.709383 11809480
0.132664 -0.267402 1.725256 11809480
0.131491 -0.267906 1.734879 11809480
0.130318 -0.268410 1.744503 11809480
0.158244 -0.236963 1.581877 11809480
0.146452 -0.251367 1.571085 11809480
0.146024 -0.248665 1.584417 11809480
0.144106 -0.252375 1.590333 11809480
0.142933 -0.252879 1.599957 11809480
0.141759 -0.253383 1.609581 11809480
0.140586 -0.253887 1.619204 11809480
0.139413 -0.254391 1.628828 11809480
0.138240 -0.254895 1.638452 11809480
0.137067 -0.255399 1.648076 11809480
0.128318 -0.263344 1.663027 11809480
0.125538 -0.251866 1.666700 11809480
0.124054 -0.256576 1.672778 11809480
0.129152 -0.235427 1.683632 11809480
0.124593 -0.251116 1.692525 11809480
0.125631 -0.247762 1.697186 11809480
0.128855 -0.258928 1.715442 11809480
0.127682 -0.259432 1.725066 11809480
0.121763 -0.261889 1.717512 11809480
0.119650 -0.260771 1.735208 11809480
0.142643 -0.242892 1.561272 11809480
0.141470 -0.243396 1.570896 11809480
0.140297 -0.243900 1.580519 11809480
0.139124 -0.244404 1.590143 11809480
0.137951 -0.244908 1.599767 11809480
0.136778 -0.245412 1.609391 11809480
0.135605 -0.245916 1.619015 11809480
0.134432 -0.246420 1.628638 11809480
0.116127 -0.240308 1.643128 11809480
0.132085 -0.247428 1.647886 11809480
0.130912 -0.247932 1.657510 11809480
0.129739 -0.248436 1.667133 11809480
0.109738 -0.261807 1.692849 11809480
0.127393 -0.249445 1.686381 11809480
0.121620 -0.259342 1.684769 11809480
0.115874 -0.258349 1.708306 11809480
0.140568 -0.242240 1.720063 11809480
0.117053 -0.260274 1.717187 11809480
0.102168 -0.253545 1.752944 11809480
0.120354 -0.252469 1.744124 11809480
0.137662 -0.234921 1.561082 11809480
0.125896 -0.237046 1.559908 11809480
0.135315 -0.235929 1.580330 11809480
0.132379 -0.228921 1.598070 11809480
0.106254 -0.242364 1.593286 11809480
0.136134 -0.229762 1.596605 11809480
0.140586 -0.238877 1.599767 11809480
0.129450 -0.238449 1.628449 11809480
0.128277 -0.238953 1.638072 11809480
0.112734 -0.245213 1.637340 11809480
0.125930 -0.239962 1.657320 11809480
0.125959 -0.255650 1.664861 11809480
0.123584 -0.240970 1.676567 11809480
0.113488 -0.243855 1.673671 11809480
0.121238 -0.241978 1.695815 11809480
0.096080 -0.236692 1.721982 11809480
0.118892 -0.242986 1.715062 11809480
0.117719 -0.243490 1.724686 11809480
0.118736 -0.240762 1.736015 11809480
0.115372 -0.244498 1.743934 11809480
0.138520 -0.242852 1.547103 11809480
0.131507 -0.227454 1.570516 11809480
0.122403 -0.231906 1.568426 11809480
0.129161 -0.228462 1.589764 11809480
0.127987 -0.228966 1.599387 11809480
0.119472 -0.213445 1.621670 11809480
0.125641 -0.229974 1.618635 11809480
0.124468 -0.230479 1.628259 11809480
0.123295 -0.230983 1.637883 11809480
0.103871 -0.233880 1.657165 11809480
0.118864 -0.226867 1.654875 11809480
0.119776 -0.232495 1.666754 11809480
0.119432 -0.251235 1.699031 11809480
0.117429 -0.233503 1.686001 11809480
0.122436 -0.244505 1.686461 11809480
0.131986 -0.230370 1.693015 11809480
0.113910 -0.235015 1.714873 11809480
0.112737 -0.235519 1.724496 11809480
0.112761 -0.242945 1.721712 11809480
0.110391 -0.236527 1.743744 11809480
0.127698 -0.218979 1.560703 11809480
0.126525 -0.219483 1.570326 11809480
0.128522 -0.213003 1.582193 11809480
0.124179 -0.220491 1.589574 11809480
0.123006 -0.220996 1.599198 11809480
0.114144 -0.219155 1.619532 11809480
0.120659 -0.222004 1.618445 11809480
0.112564 -0.219780 1.627741 11809480
0.118313 -0.223012 1.637693 11809480
0.109565 -0.204860 1.654239 11809480
0.115967 -0.224020 1.656940 11809480
0.111476 -0.208124 1.670393 11809480
0.113621 -0.225028 1.676188 11809480
0.112448 -0.225532 1.685812 11809480
0.111275 -0.226036 1.695435 11809480
0.110101 -0.226540 1.705059 11809480
0.128634 -0.243566 1.705583 11809480
0.107755 -0.227548 1.724307 11809480
0.104119 -0.234484 1.722651 11809480
0.105409 -0.228556 1.743554 11809480
0.118983 -0.235684 1.554460 11809480
0.121543 -0.211513 1.570137 11809480
0.120370 -0.212017 1.579760 11809480
0.120850 -0.211410 1.582277 11809480
0.116131 -0.215712 1.610456 11809480
0.116851 -0.213529 1.608632 11809480
0.115678 -0.214033 1.618255 11809480
0.114505 -0.214537 1.627879 11809480
0.113331 -0.215041 1.637503 11809480
0.112158 -0.215545 1.647127 11809480
0.116486 -0.233757 1.664091 11809480
0.108066 -0.201642 1.675410 11809480
0.118177 -0.212071 1.666286 11809480
0.107466 -0.217561 1.685622 11809480
0.106293 -0.218065 1.695246 11809480
0.111993 -0.217769 1.704319 11809480
0.103947 -0.219073 1.714493 11809480
0.105795 -0.215553 1.717263 11809480
0.101600 -0.220082 1.733741 11809480
0.100427 -0.220586 1.743364 11809480
0.117396 -0.215291 1.561964 11809480
0.116562 -0.203542 1.569947 11809480
0.124691 -0.199343 1.572971 11809480
0.114215 -0.204550 1.589194 11809480
0.113042 -0.205054 1.598818 11809480
0.090359 -0.210054 1.597225 11809480
0.110696 -0.206062 1.618066 11809480
0.109523 -0.206566 1.627689 11809480
0.108350 -0.207070 1.637313 11809480
0.107177 -0.207574 1.646937 11809480
0.106004 -0.208078 1.656561 11809480
0.113153 -0.194576 1.673736 11809480
0.103657 -0.209086 1.675808 11809480
0.102484 -0.209590 1.685432 11809480
0.101311 -0.210095 1.695056 11809480
0.100138 -0.210599 1.704680 11809480
0.098965 -0.211103 1.714303 11809480
0.075105 -0.198887 1.738595 11809480
0.091965 -0.218305 1.763502 11809480
0.095445 -0.212615 1.743175 11809480
0.119201 -0.191497 1.557717 11809480
0.110452 -0.207065 1.561155 11809480
0.110540 -0.199014 1.570694 11809480
0.109234 -0.196579 1.589005 11809480
0.108060 -0.197083 1.598628 11809480
0.106887 -0.197587 1.608252 11809480
0.105714 -0.198091 1.617876 11809480
0.104541 -0.198595 1.627500 11809480
0.110383 -0.198270 1.642536 11809480
0.102195 -0.199603 1.646747 11809480
0.097736 -0.174564 1.657453 11809480
0.099849 -0.200612 1.665995 11809480
0.098676 -0.201116 1.675619 11809480
0.097502 -0.201620 1.685242 11809480
0.096329 -0.202124 1.694866 11809480
0.095156 -0.202628 1.704490 11809480
0.098167 -0.202475 1.738897 11809480
0.092810 -0.203636 1.723737 11809480
0.071003 -0.206519 1.717888 11809480
0.090464 -0.204644 1.742985 11809480
0.107771 -0.187096 1.559944 11809480
0.106598 -0.187600 1.569567 11809480
0.105425 -0.188104 1.579191 11809480
0.106779 -0.209461 1.592889 11809480
0.103079 -0.189112 1.598439 11809480
0.101906 -0.189616 1.608062 11809480
0.100732 -0.190120 1.617686 11809480
0.099559 -0.190624 1.627310 11809480
0.098386 -0.191129 1.636934 11809480
0.079843 -0.183784 1.634837 11809480
0.096040 -0.192137 1.656181 11809480
0.094358 -0.198593 1.671853 11809480
0.093694 -0.193145 1.675429 11809480
0.089500 -0.193514 1.689147 11809480
0.079042 -0.194309 1.699682 11809480
0.080451 -0.184976 1.675667 11809480
0.089001 -0.195161 1.713924 11809480
0.085220 -0.190439 1.704028 11809480
0.086655 -0.196169 1.733171 11809480
0.078513 -0.204106 1.753067 11809480
0.102789 -0.179125 1.559754 11809480
0.101616 -0.179629 1.569377 11809480
0.100443 -0.180133 1.579001 11809480
0.099270 -0.180637 1.588625 11809480
0.101021 -0.189183 1.602492 11809480
0.096924 -0.181646 1.607873 11809480
0.095751 -0.182150 1.617496 11809480
0.103569 -0.187745 1.637792 11809480
0.093405 -0.183158 1.636744 11809480
0.092231 -0.183662 1.646368 11809480
0.089682 -0.189936 1.651611 11809480
0.098921 -0.174140 1.667437 11809480
0.088712 -0.185174 1.675239 11809480
0.087539 -0.185678 1.684863 11809480
0.086366 -0.186182 1.694487 11809480
0.067376 -0.188884 1.702217 11809480
0.069395 -0.205196 1.722900 11809480
0.082847 -0.187694 1.723358 11809480
0.072449 -0.185688 1.742399 11809480
0.080500 -0.188702 1.742605 11809480
0.097808 -0.171154 1.559564 11809480
0.113998 -0.169288 1.582804 11809480
0.095461 -0.172163 1.578811 11809480
0.087399 -0.176550 1.591367 11809480
0.093115 -0.173171 1.598059 11809480
0.084533 -0.165897 1.587442 11809480
0.090769 -0.174179 1.617307 11809480
0.064462 -0.154679 1.624946 11809480
0.088423 -0.175187 1.636554 11809480
0.087250 -0.175691 1.646178 11809480
0.094843 -0.190072 1.663987 11809480
0.084903 -0.176699 1.665425 11809480
0.083730 -0.177203 1.675049 11809480
0.073275 -0.189290 1.688483 11809480
0.076375 -0.187971 1.681928 11809480
0.080211 -0.178715 1.703920 11809480
0.079038 -0.179219 1.713544 11809480
0.077865 -0.179723 1.723168 11809480
0.076692 -0.180228 1.732792 11809480
0.078096 -0.189732 1.760951 11809480
0.092826 -0.163184 1.559374 11809480
0.091653 -0.163688 1.568998 11809480
0.098596 -0.163097 1.574541 11809480
0.089307 -0.164696 1.588245 11809480
0.090973 -0.160597 1.603928 11809480
0.079688 -0.161327 1.599814 11809480
0.085787 -0.166208 1.617117 11809480
0.092024 -0.164929 1.636446 11809480
0.083651 -0.177169 1.648883 11809480
0.080313 -0.167490 1.639147 11809480
0.068016 -0.180354 1.663372 11809480
0.079922 -0.168728 1.665236 11809480
0.078749 -0.169232 1.674859 11809480
0.058300 -0.168893 1.687839 11809480
0.072828 -0.153844 1.700053 11809480
0.075229 -0.170745 1.703731 11809480
0.074056 -0.171249 1.713354 11809480
0.072883 -0.171753 1.722978 11809480
0.071710 -0.172257 1.732602 11809480
0.070537 -0.172761 1.742226 11809480
0.087844 -0.155213 1.559184 11809480
0.086671 -0.155717 1.568808 11809480
0.085498 -0.156221 1.578432 11809480
0.088467 -0.178875 1.573111 11809480
0.083152 -0.157229 1.597679 11809480
0.065391 -0.165632 1.614282 11809480
0.080806 -0.158237 1.616927 11809480
0.079632 -0.158741 1.626551 11809480
0.078459 -0.159245 1.636175 11809480
0.072462 -0.172265 1.642826 11809480
0.076113 -0.160253 1.655422 11809480
0.073484 -0.167560 1.661298 11809480
0.051857 -0.155193 1.678657 11809480
0.067041 -0.152397 1.678820 11809480
0.071421 -0.162270 1.693917 11809480
0.070248 -0.162774 1.703541 11809480
0.051635 -0.163825 1.696756 11809480
0.067901 -0.163782 1.722788 11809480
0.055968 -0.175716 1.731741 11809480
0.065555 -0.164790 1.742036 11809480
0.082862 -0.147242 1.558995 11809480
0.081689 -0.147746 1.568618 11809480
0.080516 -0.148250 1.578242 11809480
0.079343 -0.148754 1.587866 11809480
0.079131 -0.146975 1.602244 11809480
0.076997 -0.149762 1.607113 11809480
0.075824 -0.150266 1.616737 11809480
0.081583 -0.162853 1.611026 11809480
0.059241 -0.145039 1.638820 11809480
0.072304 -0.151779 1.645609 11809480
0.071131 -0.152283 1.655232 11809480
0.069958 -0.152787 1.664856 11809480
0.076956 -0.152545 1.689859 11809480
0.067612 -0.153795 1.684104 11809480
0.066439 -0.154299 1.693727 11809480
0.065266 -0.154803 1.703351 11809480
0.050256 -0.158658 1.698631 11809480
0.065357 -0.157856 1.720766 11809480
0.061746 -0.156315 1.732222 11809480
0.060573 -0.156819 1.741846 11809480
0.077881 -0.139271 1.558805 11809480
0.076708 -0.139775 1.568429 11809480
0.075535 -0.140279 1.578052 11809480
0.063201 -0.144910 1.601332 11809480
0.076849 -0.143147 1.598178 11809480
0.072015 -0.141791 1.606924 11809480
0.070842 -0.142296 1.616547 11809480
0.075414 -0.129315 1.641369 11809480
0.059596 -0.137771 1.632978 11809480
0.067323 -0.143808 1.645419 11809480
0.072993 -0.135067 1.640509 11809480
0.064977 -0.144816 1.664666 11809480
0.063803 -0.145320 1.674290 11809480
0.058660 -0.147424 1.669369 11809480
0.056851 -0.147890 1.686699 11809480
0.060295 -0.140195 1.704154 11809480
0.069729 -0.163754 1.717445 11809480
0.081588 -0.152110 1.715447 11809480
0.061522 -0.140707 1.729126 11809480
0.055592 -0.148848 1.741656 11809480
0.072899 -0.131300 1.558615 11809480
0.069874 -0.135340 1.565954 11809480
0.079802 -0.128818 1.575398 11809480
0.069380 -0.132813 1.587486 11809480
0.063961 -0.140996 1.600896 11809480
0.067033 -0.133821 1.606734 11809480
0.065860 -0.134325 1.616358 11809480
0.067728 -0.125846 1.630542 11809480
0.076572 -0.139067 1.632582 11809480
0.062341 -0.135837 1.645229 11809480
0.061168 -0.136341 1.654853 11809480
0.059995 -0.136845 1.664477 11809480
0.053960 -0.120463 1.668621 11809480
0.057649 -0.137853 1.683724 11809480
0.065734 -0.117185 1.706174 11809480
0.060709 -0.139418 1.689822 11809480
0.054129 -0.139365 1.712595 11809480
0.060741 -0.144706 1.708712 11809480
0.051783 -0.140373 1.731843 11809480
0.050610 -0.140878 1.741467 11809480
0.040755 -0.119759 1.572459 11809480
0.087773 -0.118165 1.582697 11809480
0.069211 -0.134147 1.570624 11809480
0.064398 -0.124842 1.587297 11809480
0.064294 -0.124801 1.600003 11809480
0.066797 -0.121570 1.592620 11809480
0.060879 -0.126354 1.616168 11809480
0.070722 -0.136958 1.629247 11809480
0.058532 -0.127362 1.635415 11809480
0.057359 -0.127866 1.645039 11809480
0.056186 -0.128370 1.654663 11809480
0.047306 -0.129606 1.652213 11809480
0.053840 -0.129378 1.673911 11809480
0.054038 -0.134021 1.690166 11809480
0.046022 -0.121880 1.701518 11809480
0.041974 -0.132811 1.709845 11809480
0.046364 -0.137531 1.722171 11809480
0.047974 -0.131899 1.722029 11809480
0.055496 -0.122071 1.726035 11809480
0.062886 -0.145525 1.741184 11809480
0.051310 -0.113558 1.565657 11809480
0.072727 -0.130147 1.567240 11809480
0.072434 -0.109700 1.561945 11809480
0.059416 -0.116871 1.587107 11809480
0.058243 -0.117375 1.596731 11809480
0.072768 -0.121514 1.603811 11809480
0.053957 -0.111233 1.601680 11809480
0.054724 -0.118887 1.625602 11809480
0.044125 -0.121159 1.629281 11809480
0.077769 -0.127140 1.646785 11809480
0.051204 -0.120399 1.654473 11809480
0.048630 -0.120996 1.658344 11809480
0.052144 -0.125922 1.686818 11809480
0.047685 -0.121912 1.683345 11809480
0.046512 -0.122416 1.692968 11809480
0.045339 -0.122920 1.702592 11809480
0.044166 -0.123424 1.712216 11809480
0.042993 -0.123928 1.721840 11809480
0.045720 -0.128087 1.734486 11809480
0.040646 -0.124936 1.741087 11809480
0.057954 -0.107388 1.558046 11809480
0.071484 -0.116342 1.556291 11809480
0.055608 -0.108396 1.577293 11809480
0.054434 -0.108900 1.586917 11809480
0.059168 -0.110135 1.600170 11809480
0.052088 -0.109908 1.606165 11809480
0.033966 -0.115704 1.605368 11809480
0.051864 -0.116716 1.614382 11809480
0.035398 -0.103634 1.647715 11809480
0.047396 -0.111924 1.644660 11809480
0.039889 -0.118379 1.656730 11809480
0.045050 -0.112933 1.663907 11809480
0.048865 -0.114815 1.679281 11809480
0.036485 -0.112598 1.671587 11809480
0.041530 -0.114445 1.692779 11809480
0.043719 -0.127059 1.723169 11809480
0.052020 -0.123380 1.692538 11809480
0.052769 -0.109750 1.697693 11809480
0.036838 -0.116461 1.731274 11809480
0.031544 -0.124431 1.752020 11809480
0.266822 -0.207269 1.575187 11809480
0.268417 -0.215656 1.590650 11809480
0.263132 -0.211086 1.597211 11809480
0.273254 -0.229626 1.604391 11809480
0.265982 -0.208848 1.605052 11809480
0.259613 -0.212599 1.626083 11809480
0.261332 -0.212623 1.627662 11809480
0.257267 -0.213607 1.645330 11809480
0.256093 -0.214111 1.654954 11809480
0.254920 -0.214615 1.664578 11809480
0.247187 -0.205707 1.675670 11809480
0.250648 -0.214547 1.690381 11809480
0.241498 -0.224394 1.683035 11809480
0.228655 -0.179744 1.681069 11809480
0.249055 -0.217135 1.712697 11809480
0.247882 -0.217639 1.722320 11809480
0.250233 -0.213691 1.729287 11809480
0.253295 -0.216142 1.742082 11809480
0.246401 -0.229801 1.749593 11809480
0.232792 -0.222537 1.769724 11809480
0.256212 -0.191362 1.594959 11809480
0.259324 -0.202612 1.587398 11809480
0.250564 -0.204181 1.602435 11809480
0.256977 -0.203620 1.606645 11809480
0.255804 -0.204124 1.616269 11809480
0.259444 -0.200112 1.637734 11809480
0.259301 -0.203049 1.638614 11809480
0.250642 -0.216928 1.646544 11809480
0.251112 -0.206140 1.654764 11809480
0.249939 -0.206644 1.664388 11809480
0.248766 -0.207148 1.674012 11809480
0.247592 -0.207652 1.683636 11809480
0.253690 -0.206859 1.696024 11809480
0.245246 -0.208660 1.702883 11809480
0.256273 -0.203397 1.729634 11809480
0.249738 -0.217915 1.707547 11809480
0.241727 -0.210172 1.731754 11809480
0.240554 -0.210677 1.741378 11809480
0.242310 -0.212174 1.732125 11809480
0.223599 -0.196131 1.779199 11809480
0.255515 -0.194137 1.577584 11809480
0.239725 -0.185958 1.578493 11809480
0.269410 -0.166732 1.601547 11809480
0.251996 -0.195649 1.606456 11809480
0.244575 -0.202472 1.621974 11809480
0.249649 -0.196657 1.625703 11809480
0.244064 -0.190369 1.638395 11809480
0.247303 -0.197665 1.644951 11809480
0.246130 -0.198169 1.654574 11809480
0.244957 -0.198673 1.664198 11809480
0.243784 -0.199177 1.673822 11809480
0.234662 -0.186301 1.674952 11809480
0.241438 -0.200185 1.693070 11809480
0.233185 -0.210161 1.707677 11809480
0.246064 -0.206130 1.719487 11809480
0.236026 -0.216083 1.710690 11809480
0.225324 -0.199786 1.738390 11809480
0.235321 -0.200923 1.743623 11809480
0.234399 -0.203210 1.750812 11809480
0.233226 -0.203714 1.760436 11809480
0.250533 -0.186166 1.577395 11809480
0.249360 -0.186670 1.587018 11809480
0.248187 -0.187174 1.596642 11809480
0.247014 -0.187678 1.606266 11809480
0.244082 -0.199562 1.596628 11809480
0.235479 -0.173987 1.616061 11809480
0.243442 -0.198436 1.634350 11809480
0.242321 -0.189694 1.644761 11809480
0.230295 -0.173831 1.642104 11809480
0.245772 -0.202931 1.678664 11809480
0.230396 -0.205134 1.662555 11809480
0.237629 -0.191711 1.683256 11809480
0.236456 -0.192215 1.692880 11809480
0.227598 -0.212443 1.685710 11809480
0.224502 -0.207306 1.713728 11809480
0.222233 -0.191412 1.728288 11809480
0.245250 -0.167275 1.726296 11809480
0.226118 -0.210877 1.737881 11809480
0.229417 -0.195239 1.750622 11809480
0.228244 -0.195743 1.760246 11809480
0.245551 -0.178195 1.577205 11809480
0.244378 -0.178699 1.586829 11809480
0.248804 -0.186318 1.597923 11809480
0.233018 -0.190488 1.589622 11809480
0.240859 -0.180211 1.615700 11809480
0.240773 -0.181598 1.615829 11809480
0.238513 -0.181219 1.634947 11809480
0.237340 -0.181723 1.644571 11809480
0.234270 -0.190306 1.651904 11809480
0.216575 -0.182261 1.654582 11809480
0.215607 -0.175548 1.684452 11809480
0.232647 -0.183740 1.683066 11809480
0.231474 -0.184244 1.692690 11809480
0.230301 -0.184748 1.702314 11809480
0.229128 -0.185252 1.711938 11809480
0.227955 -0.185756 1.721561 11809480
0.226782 -0.186260 1.731185 11809480
0.225609 -0.186764 1.740809 11809480
0.224435 -0.187268 1.750433 11809480
0.223262 -0.187772 1.760056 11809480
0.258702 -0.162335 1.592863 11809480
0.239397 -0.170728 1.586639 11809480
0.238223 -0.171232 1.596263 11809480
0.232511 -0.174897 1.608300 11809480
0.235877 -0.172240 1.615510 11809480
0.234704 -0.172745 1.625134 11809480
0.237131 -0.164341 1.638993 11809480
0.230624 -0.186676 1.649996 11809480
0.231185 -0.174257 1.654005 11809480
0.230012 -0.174761 1.663629 11809480
0.244394 -0.170790 1.683888 11809480
0.227665 -0.175769 1.682876 11809480
0.229268 -0.157283 1.679522 11809480
0.225157 -0.175735 1.709792 11809480
0.224146 -0.177281 1.711748 11809480
0.207110 -0.173159 1.707598 11809480
0.218684 -0.181660 1.746760 11809480
0.223755 -0.180682 1.723439 11809480
0.226037 -0.187846 1.751241 11809480
0.237154 -0.181380 1.749375 11809480
0.239932 -0.153714 1.579834 11809480
0.251069 -0.152453 1.572226 11809480
0.239001 -0.169902 1.618832 11809480
0.248985 -0.144198 1.626870 11809480
0.235303 -0.172917 1.621969 11809480
0.207285 -0.144303 1.656566 11809480
0.240003 -0.173863 1.639714 11809480
0.228944 -0.176220 1.638966 11809480
0.221152 -0.185335 1.660038 11809480
0.228638 -0.163839 1.664163 11809480
0.230772 -0.158335 1.673026 11809480
0.221080 -0.174171 1.670925 11809480
0.221511 -0.168302 1.692310 11809480
0.220338 -0.168806 1.701934 11809480
0.219164 -0.169310 1.711558 11809480
0.208009 -0.159445 1.733171 11809480
0.216818 -0.170318 1.730806 11809480
0.215645 -0.170822 1.740429 11809480
0.213163 -0.171707 1.755454 11809480
0.213299 -0.171831 1.759677 11809480
0.230606 -0.154283 1.576635 11809480
0.229976 -0.150711 1.572388 11809480
0.222644 -0.156847 1.590185 11809480
0.227087 -0.155795 1.605507 11809480
0.220129 -0.153744 1.606415 11809480
0.214734 -0.145927 1.613411 11809480
0.223568 -0.157307 1.634378 11809480
0.222394 -0.157811 1.644002 11809480
0.221221 -0.158315 1.653626 11809480
0.220048 -0.158819 1.663249 11809480
0.218875 -0.159323 1.672873 11809480
0.217702 -0.159827 1.682497 11809480
0.216529 -0.160331 1.692121 11809480
0.212476 -0.151359 1.704053 11809480
0.235131 -0.162797 1.719437 11809480
0.213010 -0.161844 1.720992 11809480
0.198720 -0.159704 1.736154 11809480
0.223896 -0.178041 1.749085 11809480
0.209490 -0.163356 1.749863 11809480
0.208317 -0.163860 1.759487 11809480
0.225625 -0.146312 1.576446 11809480
0.232006 -0.164814 1.571455 11809480
0.209953 -0.141937 1.603172 11809480
0.222105 -0.147824 1.605317 11809480
0.229952 -0.165060 1.620094 11809480
0.219759 -0.148832 1.624565 11809480
0.218586 -0.149336 1.634188 11809480
0.201809 -0.167097 1.647635 11809480
0.223980 -0.168899 1.659596 11809480
0.215066 -0.150848 1.663060 11809480
0.229101 -0.144336 1.673174 11809480
0.203635 -0.160773 1.673954 11809480
0.221431 -0.135998 1.682638 11809480
0.205981 -0.164091 1.699683 11809480
0.209201 -0.153369 1.711178 11809480
0.214833 -0.163996 1.701527 11809480
0.206855 -0.154377 1.730426 11809480
0.213038 -0.128786 1.739021 11809480
0.203404 -0.160937 1.745119 11809480
0.203335 -0.155889 1.759297 11809480
0.233092 -0.136759 1.580796 11809480
0.219470 -0.138845 1.585880 11809480
0.218297 -0.139349 1.595503 11809480
0.199874 -0.139092 1.609424 11809480
0.222241 -0.134729 1.605090 11809480
0.215289 -0.152064 1.619012 11809480
0.213604 -0.141365 1.633999 11809480
0.212431 -0.141869 1.643622 11809480
0.211258 -0.142373 1.653246 11809480
0.210085 -0.142878 1.662870 11809480
0.205349 -0.141891 1.666476 11809480
0.211231 -0.160276 1.681504 11809480
0.213434 -0.146880 1.698191 11809480
0.205392 -0.144894 1.701365 11809480
0.204219 -0.145398 1.710989 11809480
0.203046 -0.145902 1.720612 11809480
0.201873 -0.146406 1.730236 11809480
0.203223 -0.126189 1.729558 11809480
0.191935 -0.155939 1.744637 11809480
0.206358 -0.146416 1.753654 11809480
0.215661 -0.130370 1.576066 11809480
0.214488 -0.130874 1.585690 11809480
0.213315 -0.131378 1.595314 11809480
0.212142 -0.131882 1.604937 11809480
0.210969 -0.132386 1.614561 11809480
0.210526 -0.127331 1.615743 11809480
0.199022 -0.129761 1.631935 11809480
0.221214 -0.138608 1.635665 11809480
0.201928 -0.154017 1.651152 11809480
0.212139 -0.133617 1.665371 11809480
0.199057 -0.143944 1.673135 11809480
0.204290 -0.126874 1.687266 11809480
0.201584 -0.136419 1.691551 11809480
0.200411 -0.136923 1.701175 11809480
0.199237 -0.137427 1.710799 11809480
0.204728 -0.130641 1.703502 11809480
0.196891 -0.138435 1.730046 11809480
0.195718 -0.138939 1.739670 11809480
0.199393 -0.117939 1.745441 11809480
0.193372 -0.139947 1.758918 11809480
0.210679 -0.122399 1.575876 11809480
0.192651 -0.128923 1.583833 11809480
0.208333 -0.123408 1.595124 11809480
0.212237 -0.104504 1.606968 11809480
0.205987 -0.124416 1.614371 11809480
0.204814 -0.124920 1.623995 11809480
0.210387 -0.122494 1.637925 11809480
0.202468 -0.125928 1.643243 11809480
0.201294 -0.126432 1.652866 11809480
0.200121 -0.126936 1.662490 11809480
0.211683 -0.122347 1.673532 11809480
0.197775 -0.127944 1.681738 11809480
0.217204 -0.143684 1.693587 11809480
0.205047 -0.127217 1.696113 11809480
0.194256 -0.129456 1.710609 11809480
0.193083 -0.129960 1.720233 11809480
0.199291 -0.126425 1.738520 11809480
0.190736 -0.130968 1.739480 11809480
0.194956 -0.134138 1.747744 11809480
0.188390 -0.131977 1.758728 11809480
0.205698 -0.114429 1.575687 11809480
0.197101 -0.110433 1.586143 11809480
0.198419 -0.109017 1.592793 11809480
0.202178 -0.115941 1.604558 11809480
0.201005 -0.116445 1.614182 11809480
0.199832 -0.116949 1.623805 11809480
0.198161 -0.124388 1.646877 11809480
0.197486 -0.117957 1.643053 11809480
0.196313 -0.118461 1.652677 11809480
0.195140 -0.118965 1.662300 11809480
0.200083 -0.115428 1.656263 11809480
0.192793 -0.119973 1.681548 11809480
0.190020 -0.131892 1.693072 11809480
0.190447 -0.120981 1.700796 11809480
0.190465 -0.129269 1.698705 11809480
0.188101 -0.121989 1.720043 11809480
0.180659 -0.122962 1.737760 11809480
0.185755 -0.122998 1.739291 11809480
0.184582 -0.123502 1.748914 11809480
0.195755 -0.124596 1.772006 11809480
0.200716 -0.106458 1.575497 11809480
0.199543 -0.106962 1.585121 11809480
0.193501 -0.090975 1.583163 11809480
0.197196 -0.107970 1.604368 11809480
0.192745 -0.126910 1.624404 11809480
0.194850 -0.108978 1.623616 11809480
0.206970 -0.126739 1.644741 11809480
0.187922 -0.136016 1.648644 11809480
0.195256 -0.110923 1.658948 11809480
0.190158 -0.110994 1.662111 11809480
0.187135 -0.122649 1.680080 11809480
0.187812 -0.112002 1.681358 11809480
0.186638 -0.112506 1.690982 11809480
0.185465 -0.113011 1.700606 11809480
0.199199 -0.120852 1.725309 11809480
0.183119 -0.114019 1.719853 11809480
0.181953 -0.124478 1.726276 11809480
0.192987 -0.111011 1.736236 11809480
0.179600 -0.115531 1.748725 11809480
0.185176 -0.122491 1.772980 11809480
0.193704 -0.095078 1.575190 11809480
0.194561 -0.098991 1.584931 11809480
0.193388 -0.099495 1.594555 11809480
0.192215 -0.099999 1.604178 11809480
0.191042 -0.100503 1.613802 11809480
0.189869 -0.101007 1.623426 11809480
0.188695 -0.101511 1.633050 11809480
0.180278 -0.099666 1.653708 11809480
0.186349 -0.102519 1.652297 11809480
0.185176 -0.103023 1.661921 11809480
0.196522 -0.121605 1.648072 11809480
0.182830 -0.104032 1.681168 11809480
0.188889 -0.086760 1.686143 11809480
0.183270 -0.115396 1.688781 11809480
0.176262 -0.109176 1.726871 11809480
0.178149 -0.091061 1.711467 11809480
0.168696 -0.103738 1.720048 11809480
0.178626 -0.119291 1.755982 11809480
0.174618 -0.107560 1.748535 11809480
0.165473 -0.119099 1.760053 11809480
0.190752 -0.090516 1.575117 11809480
0.189579 -0.091020 1.584741 11809480
0.188356 -0.097394 1.597152 11809480
0.187233 -0.092028 1.603989 11809480
0.188788 -0.073852 1.616689 11809480
0.184887 -0.093036 1.623236 11809480
0.183714 -0.093541 1.632860 11809480
0.172645 -0.090213 1.636984 11809480
0.181628 -0.101785 1.655567 11809480
0.183140 -0.097650 1.663769 11809480
0.197591 -0.088198 1.664397 11809480
0.177848 -0.096061 1.680979 11809480
0.176675 -0.096565 1.690602 11809480
0.169909 -0.096512 1.702196 11809480
0.174329 -0.097573 1.709850 11809480
0.181032 -0.083378 1.699128 11809480
0.171983 -0.098581 1.729098 11809480
0.165681 -0.097559 1.745966 11809480
0.179312 -0.096466 1.739266 11809480
0.146351 -0.111478 1.758172 11809480
0.180213 -0.094954 1.565715 11809480
0.184598 -0.083049 1.584551 11809480
0.190495 -0.086106 1.599127 11809480
0.182251 -0.084058 1.603799 11809480
0.181078 -0.084562 1.613423 11809480
0.179905 -0.085066 1.623046 11809480
0.178732 -0.085570 1.632670 11809480
0.167751 -0.078952 1.640502 11809480
0.176386 -0.086578 1.651918 11809480
0.180986 -0.080401 1.649934 11809480
0.179911 -0.103982 1.658595 11809480
0.161404 -0.090728 1.674580 11809480
0.183318 -0.095994 1.697490 11809480
0.163509 -0.106531 1.702747 11809480
0.169347 -0.089602 1.709660 11809480
0.168174 -0.090106 1.719284 11809480
0.167001 -0.090610 1.728908 11809480
0.165828 -0.091114 1.738532 11809480
0.173430 -0.095285 1.734968 11809480
0.163481 -0.092122 1.757779 11809480
0.168265 -0.079684 1.583259 11809480
0.184732 -0.090721 1.580375 11809480
0.178443 -0.075583 1.593985 11809480
0.192377 -0.092425 1.613030 11809480
0.176096 -0.076591 1.613233 11809480
0.174923 -0.077095 1.622857 11809480
0.169805 -0.076441 1.619060 11809480
0.172577 -0.078103 1.642104 11809480
0.169228 -0.082270 1.647148 11809480
0.160628 -0.072974 1.670326 11809480
0.169058 -0.079615 1.670975 11809480
0.167885 -0.080119 1.680599 11809480
0.166712 -0.080623 1.690223 11809480
0.171220 -0.090061 1.694696 11809480
0.164365 -0.081631 1.709470 11809480
0.163192 -0.082135 1.719094 11809480
0.162019 -0.082639 1.728718 11809480
0.160846 -0.083144 1.738342 11809480
0.159673 -0.083648 1.747966 11809480
0.152539 -0.081760 1.767324 11809480
0.187945 -0.075627 1.563229 11809480
0.200139 -0.082403 1.568733 11809480
0.163703 -0.071074 1.604810 11809480
0.172108 -0.070318 1.602076 11809480
0.171115 -0.068620 1.613043 11809480
0.176965 -0.064988 1.647609 11809480
0.168768 -0.069628 1.632291 11809480
0.166438 -0.079963 1.644306 11809480
0.155644 -0.062037 1.657887 11809480
0.159718 -0.069727 1.664067 11809480
0.164076 -0.071644 1.670786 11809480
0.155997 -0.090445 1.692119 11809480
0.161730 -0.072652 1.690033 11809480
0.160557 -0.073156 1.699657 11809480
0.159529 -0.080723 1.720149 11809480
0.158210 -0.074165 1.718904 11809480
0.159727 -0.098581 1.723866 11809480
0.155864 -0.075173 1.738152 11809480
0.154691 -0.075677 1.747776 11809480
0.155347 -0.069446 1.759557 11809480
0.170825 -0.058633 1.574358 11809480
0.153675 -0.062605 1.582024 11809480
0.168479 -0.059641 1.593606 11809480
0.150539 -0.060157 1.598343 11809480
0.157951 -0.072821 1.619671 11809480
0.164960 -0.061153 1.622477 11809480
0.163787 -0.061657 1.632101 11809480
0.173184 -0.056838 1.621259 11809480
0.161441 -0.062665 1.651348 11809480
0.160267 -0.063169 1.660972 11809480
0.159094 -0.063674 1.670596 11809480
0.157921 -0.064178 1.680220 11809480
0.156748 -0.064682 1.689843 11809480
0.155575 -0.065186 1.699467 11809480
0.154402 -0.065690 1.709091 11809480
0.159338 -0.058358 1.724675 11809480
0.132623 -0.049147 1.718143 11809480
0.150882 -0.067202 1.737962 11809480
0.149709 -0.067706 1.747586 11809480
0.143454 -0.065123 1.773327 11809480
0.168165 -0.048559 1.584188 11809480
0.164671 -0.051166 1.583792 11809480
0.163497 -0.051670 1.593416 11809480
0.147551 -0.059411 1.594572 11809480
0.155884 -0.036072 1.604863 11809480
0.159978 -0.053182 1.622287 11809480
0.158805 -0.053686 1.631911 11809480
0.157632 -0.054191 1.641535 11809480
0.161278 -0.051958 1.651030 11809480
0.151493 -0.041881 1.659615 11809480
0.170908 -0.054609 1.657053 11809480
0.152939 -0.056207 1.680030 11809480
0.134938 -0.066722 1.663745 11809480
0.169748 -0.054561 1.695556 11809480
0.149420 -0.057719 1.708901 11809480
0.148247 -0.058223 1.718525 11809480
0.159333 -0.074516 1.741171 11809480
0.137372 -0.061454 1.735944 11809480
0.125069 -0.052643 1.754117 11809480
0.143555 -0.060239 1.757020 11809480
0.168271 -0.032876 1.573400 11809480
0.159689 -0.043195 1.583602 11809480
0.158516 -0.043699 1.593226 11809480
0.144917 -0.060732 1.601566 11809480
0.156169 -0.044708 1.612474 11809480
0.154996 -0.045212 1.622097 11809480
0.153823 -0.045716 1.631721 11809480
0.152650 -0.046220 1.641345 11809480
0.139945 -0.043326 1.644573 11809480
0.150304 -0.047228 1.660592 11809480
0.144009 -0.042621 1.662333 11809480
0.156129 -0.049819 1.680945 11809480
0.149825 -0.057707 1.690809 11809480
0.145706 -0.053836 1.697306 11809480
0.148434 -0.038485 1.711225 11809480
0.130451 -0.041186 1.724726 11809480
0.142092 -0.050756 1.727959 11809480
0.140919 -0.051260 1.737583 11809480
0.139746 -0.051764 1.747206 11809480
0.138573 -0.052268 1.756830 11809480
0.258546 -0.228599 1.760238 11809480
0.234614 -0.225047 1.759488 11809480
0.225287 -0.216161 1.756863 11809480
0.193667 -0.252496 1.742590 11809480
0.208887 -0.241221 1.755505 11809480
0.201805 -0.256942 1.748437 11809480
0.191735 -0.252004 1.752849 11809480
0.180894 -0.272331 1.760119 11809480
0.183034 -0.273762 1.761353 11809480
0.159334 -0.264186 1.758508 11809480
0.157432 -0.273569 1.747538 11809480
0.148857 -0.278961 1.746210 11809480
0.140281 -0.284352 1.744883 11809480
0.229977 -0.190668 1.761110 11809480
0.229632 -0.217076 1.759298 11809480
0.215870 -0.224558 1.763191 11809480
0.212480 -0.227859 1.756643 11809480
0.200395 -0.239279 1.773518 11809480
0.195329 -0.238642 1.753987 11809480
0.162286 -0.233101 1.748892 11809480
0.180462 -0.252402 1.742376 11809480
0.169602 -0.254816 1.750004 11809480
0.151665 -0.256008 1.752820 11809480
0.152451 -0.265599 1.747348 11809480
0.143875 -0.270990 1.746021 11809480
0.135299 -0.276381 1.744693 11809480
0.242507 -0.185616 1.757396 11809480
0.224650 -0.209105 1.759108 11809480
0.216074 -0.214497 1.757780 11809480
0.207499 -0.219888 1.756453 11809480
0.198923 -0.225279 1.755125 11809480
0.190347 -0.230671 1.753797 11809480
0.179657 -0.229368 1.755032 11809480
0.173196 -0.241454 1.751142 11809480
0.158429 -0.246683 1.743602 11809480
0.156045 -0.252236 1.748486 11809480
0.147469 -0.257628 1.747159 11809480
0.153795 -0.264371 1.743589 11809480
0.130318 -0.268410 1.744503 11809480
0.227932 -0.200174 1.757885 11809480
0.219668 -0.201134 1.758918 11809480
0.214303 -0.227294 1.766594 11809480
0.207297 -0.212305 1.769032 11809480
0.168160 -0.208533 1.751814 11809480
0.195745 -0.215886 1.742590 11809480
0.176790 -0.228091 1.752280 11809480
0.168214 -0.233483 1.750952 11809480
0.183240 -0.245725 1.743117 11809480
0.137437 -0.242612 1.746716 11809480
0.142487 -0.249657 1.746969 11809480
0.137285 -0.263192 1.742563 11809480
0.125336 -0.260440 1.744313 11809480
0.223262 -0.187772 1.760056 11809480
0.214687 -0.193164 1.758729 11809480
0.206111 -0.198555 1.757401 11809480
0.198153 -0.211701 1.748762 11809480
0.188960 -0.209338 1.754745 11809480
0.186116 -0.222821 1.750835 11809480
0.171808 -0.220121 1.752090 11809480
0.168120 -0.214955 1.747365 11809480
0.148341 -0.235142 1.737834 11809480
0.146081 -0.236295 1.748107 11809480
0.139618 -0.239510 1.743395 11809480
0.117663 -0.241725 1.724911 11809480
0.120354 -0.252469 1.744124 11809480
0.218281 -0.179801 1.759867 11809480
0.210982 -0.167112 1.774378 11809480
0.205125 -0.189855 1.746525 11809480
0.192554 -0.195976 1.755883 11809480
0.187607 -0.220791 1.768349 11809480
0.181415 -0.204950 1.767632 11809480
0.168072 -0.212146 1.767424 11809480
0.158251 -0.217541 1.750572 11809480
0.147790 -0.217986 1.743842 11809480
0.140704 -0.231828 1.753168 11809480
0.132524 -0.233715 1.746589 11809480
0.132427 -0.237511 1.749203 11809480
0.122056 -0.252541 1.757306 11809480
0.213299 -0.171831 1.759677 11809480
0.210215 -0.164323 1.770734 11809480
0.212722 -0.173249 1.758395 11809480
0.187572 -0.188005 1.755694 11809480
0.193422 -0.193406 1.761892 11809480
0.170420 -0.198788 1.753038 11809480
0.161845 -0.204179 1.751710 11809480
0.154526 -0.203889 1.753493 11809480
0.146771 -0.223723 1.743886 11809480
0.143410 -0.224544 1.757730 11809480
0.119576 -0.219110 1.741063 11809480
0.118966 -0.231136 1.745072 11809480
0.105777 -0.240979 1.756567 11809480
0.208317 -0.163860 1.759487 11809480
0.191366 -0.152443 1.754643 11809480
0.186015 -0.160882 1.775162 11809480
0.186072 -0.189007 1.761174 11809480
0.173033 -0.170953 1.751272 11809480
0.165439 -0.190817 1.752848 11809480
0.156863 -0.196208 1.751521 11809480
0.148287 -0.201599 1.750193 11809480
0.139712 -0.206991 1.748865 11809480
0.131136 -0.212382 1.747537 11809480
0.122560 -0.217774 1.746210 11809480
0.121672 -0.203164 1.743368 11809480
0.111848 -0.223947 1.743845 11809480
0.203335 -0.155889 1.759297 11809480
0.194760 -0.161280 1.757970 11809480
0.186720 -0.160446 1.747092 11809480
0.177608 -0.172063 1.755314 11809480
0.169008 -0.191178 1.751498 11809480
0.147516 -0.178891 1.721972 11809480
0.151881 -0.188237 1.751331 11809480
0.125679 -0.204874 1.756697 11809480
0.134478 -0.203926 1.742176 11809480
0.123286 -0.202281 1.744140 11809480
0.117579 -0.209803 1.746020 11809480
0.108355 -0.202065 1.730073 11809480
0.100892 -0.218854 1.753695 11809480
0.176135 -0.136403 1.783055 11809480
0.198224 -0.158611 1.737015 11809480
0.181202 -0.158701 1.756452 11809480
0.164128 -0.162306 1.760953 11809480
0.161218 -0.157876 1.762286 11809480
0.155475 -0.174875 1.752469 11809480
0.146900 -0.180266 1.751141 11809480
0.119528 -0.180908 1.747782 11809480
0.127890 -0.185654 1.762392 11809480
0.121173 -0.196441 1.747158 11809480
0.112207 -0.210821 1.743522 11809480
0.104021 -0.207223 1.744502 11809480
0.083777 -0.208109 1.735233 11809480
0.192426 -0.147504 1.766973 11809480
0.202058 -0.168846 1.764979 11809480
0.178301 -0.134355 1.739794 11809480
0.167645 -0.156122 1.754935 11809480
0.163018 -0.168773 1.753898 11809480
0.150494 -0.166904 1.752279 11809480
0.141918 -0.172296 1.750951 11809480
0.113325 -0.179427 1.749547 11809480
0.124766 -0.183078 1.748296 11809480
0.116191 -0.188470 1.746968 11809480
0.111968 -0.202912 1.729728 11809480
0.110154 -0.180463 1.745924 11809480
0.080187 -0.213966 1.721141 11809480
0.188390 -0.131977 1.758728 11809480
0.179814 -0.137368 1.757400 11809480
0.171239 -0.142759 1.756072 11809480
0.162663 -0.148151 1.754745 11809480
0.154087 -0.153542 1.753417 11809480
0.145512 -0.158933 1.752089 11809480
0.147702 -0.173600 1.751666 11809480
0.129244 -0.170187 1.754762 11809480
0.121315 -0.169810 1.769195 11809480
0.113074 -0.185496 1.732467 11809480
0.102633 -0.185890 1.745451 11809480
0.094058 -0.191282 1.744123 11809480
0.094916 -0.197937 1.731868 11809480
0.183408 -0.124006 1.758538 11809480
0.185739 -0.137522 1.735019 11809480
0.165566 -0.123275 1.762466 11809480
0.157681 -0.140180 1.754555 11809480
0.149106 -0.145571 1.753227 11809480
0.143476 -0.137477 1.735370 11809480
0.139496 -0.153169 1.744397 11809480
0.123379 -0.161745 1.749244 11809480
0.106868 -0.175598 1.767521 11809480
0.106227 -0.172528 1.746589 11809480
0.100619 -0.162650 1.757385 11809480
0.089076 -0.183311 1.743933 11809480
0.087628 -0.172672 1.755699 11809480
0.199251 -0.106239 1.762469 11809480
0.165149 -0.120685 1.761926 11809480
0.161275 -0.126818 1.755693 11809480
0.141324 -0.138575 1.770381 11809480
0.144124 -0.137600 1.753037 11809480
0.158751 -0.137250 1.737287 11809480
0.138096 -0.149035 1.758879 11809480
0.121070 -0.157475 1.733811 11809480
0.109821 -0.159166 1.747727 11809480
0.101246 -0.164557 1.746399 11809480
0.101386 -0.167764 1.723390 11809480
0.103559 -0.167562 1.751404 11809480
0.067585 -0.180201 1.727676 11809480
0.173445 -0.108064 1.758159 11809480
0.176907 -0.122384 1.757371 11809480
0.178612 -0.098683 1.758222 11809480
0.153695 -0.129744 1.732788 11809480
0.139142 -0.129630 1.752848 11809480
0.130567 -0.135021 1.751520 11809480
0.136752 -0.158520 1.756488 11809480
0.113415 -0.145804 1.748864 11809480
0.086987 -0.131400 1.737963 11809480
0.082696 -0.161134 1.741535 11809480
0.087688 -0.161978 1.744881 11809480
0.079112 -0.167369 1.743554 11809480
0.070537 -0.172761 1.742226 11809480
0.168463 -0.100093 1.757969 11809480
0.157368 -0.108512 1.756558 11809480
0.153608 -0.107646 1.758589 11809480
0.163003 -0.101697 1.756816 11809480
0.134850 -0.124488 1.745491 11809480
0.115938 -0.115524 1.749261 11809480
0.112207 -0.136918 1.739999 11809480
0.114767 -0.134779 1.756079 11809480
0.099858 -0.143224 1.747347 11809480
0.091282 -0.148616 1.746019 11809480
0.082706 -0.154007 1.744691 11809480
0.074131 -0.159399 1.743364 11809480
0.065555 -0.164790 1.742036 11809480
0.172799 -0.082979 1.764148 11809480
0.154906 -0.097514 1.756451 11809480
0.134073 -0.118137 1.725716 11809480
0.128950 -0.110380 1.742457 11809480
0.126056 -0.114612 1.747509 11809480
0.120603 -0.119079 1.751140 11809480
0.114370 -0.126081 1.760451 11809480
0.103452 -0.129862 1.748485 11809480
0.091019 -0.158816 1.759136 11809480
0.086300 -0.140645 1.745829 11809480
0.075163 -0.158140 1.734782 11809480
0.072916 -0.139908 1.732171 11809480
0.076946 -0.159225 1.754666 11809480
0.158500 -0.084152 1.757589 11809480
0.149924 -0.089543 1.756262 11809480
0.155580 -0.071618 1.753792 11809480
0.116141 -0.113420 1.769451 11809480
0.116730 -0.102892 1.756605 11809480
0.133772 -0.106978 1.751370 11809480
0.100155 -0.120363 1.752515 11809480
0.091115 -0.115185 1.745177 11809480
0.089894 -0.127283 1.746967 11809480
0.081319 -0.132674 1.745640 11809480
0.072743 -0.138066 1.744312 11809480
0.064167 -0.143457 1.742984 11809480
0.055592 -0.148848 1.741656 11809480
0.153518 -0.076181 1.757400 11809480
0.130068 -0.094255 1.745119 11809480
0.136367 -0.086964 1.754744 11809480
0.128734 -0.088587 1.772217 11809480
0.119215 -0.097746 1.752089 11809480
0.110330 -0.114167 1.741916 11809480
0.097231 -0.119633 1.755500 11809480
0.093488 -0.113921 1.748105 11809480
0.084913 -0.119312 1.746778 11809480
0.076337 -0.124703 1.745450 11809480
0.067761 -0.130095 1.744122 11809480
0.059513 -0.132189 1.756502 11809480
0.047759 -0.135239 1.731829 11809480
0.148536 -0.068210 1.757210 11809480
0.139961 -0.073601 1.755882 11809480
0.131385 -0.078993 1.754554 11809480
0.122809 -0.084384 1.753227 11809480
0.117300 -0.093300 1.743174 11809480
0.108554 -0.095815 1.741737 11809480
0.097014 -0.120705 1.743971 11809480
0.072630 -0.117579 1.770760 11809480
0.072588 -0.108414 1.726999 11809480
0.071355 -0.116733 1.745260 11809480
0.062779 -0.122124 1.743932 11809480
0.051768 -0.125421 1.743671 11809480
0.063109 -0.145012 1.743190 11809480
0.143555 -0.060239 1.757020 11809480
0.147713 -0.068892 1.752259 11809480
0.140289 -0.091206 1.748539 11809480
0.117828 -0.076413 1.753037 11809480
0.111362 -0.100994 1.747256 11809480
0.104103 -0.100013 1.761235 11809480
0.092100 -0.092588 1.749054 11809480
0.097395 -0.094884 1.745131 11809480
0.074949 -0.103370 1.746398 11809480
0.064583 -0.111047 1.740247 11809480
0.057798 -0.114153 1.743743 11809480
0.049222 -0.119545 1.742415 11809480
0.040646 -0.124936 1.741087 11809480
0.138573 -0.052268 1.756830 11809480
0.129997 -0.057660 1.755502 11809480
0.121421 -0.063051 1.754175 11809480
0.124932 -0.070285 1.748083 11809480
0.099935 -0.056655 1.751615 11809480
0.095694 -0.079225 1.750192 11809480
0.087119 -0.084617 1.748864 11809480
0.078543 -0.090008 1.747536 11809480
0.063558 -0.093965 1.725397 11809480
0.061392 -0.100791 1.744881 11809480
0.048418 -0.099702 1.737387 11809480
0.044240 -0.111574 1.742225 11809480
0.035665 -0.116965 1.740897 11809480
0.265478 -0.210078 1.577964 11809480
0.283142 -0.212157 1.577881 11809480
0.254944 -0.237401 1.589457 11809480
0.239751 -0.226252 1.573981 11809480
0.231176 -0.231644 1.572653 11809480
0.222600 -0.237035 1.571325 11809480
0.205286 -0.239516 1.557917 11809480
0.205449 -0.247818 1.568670 11809480
0.196873 -0.253209 1.567342 11809480
0.183127 -0.266149 1.575947 11809480
0.179722 -0.263992 1.564687 11809480
0.185116 -0.259082 1.577586 11809480
0.162570 -0.274775 1.562031 11809480
0.260497 -0.202107 1.577774 11809480
0.251921 -0.207499 1.576446 11809480
0.237359 -0.216879 1.572659 11809480
