# .PCD v.7 - Point Cloud Data file format
VERSION .7
FIELDS x y z rgb
SIZE 4 4 4 4
TYPE F F F U
COUNT 1 1 1 1
WIDTH 1092
HEIGHT 1
VIEWPOINT 0 0 0 1 0 0 0
POINTS 1092
DATA ascii
-0.236718 -0.085010 1.892424 3322930
-0.239895 -0.092958 1.885563 3322930
-0.244684 -0.108144 1.901031 3322930
-0.245340 -0.129030 1.896646 3322930
-0.236230 -0.127832 1.891427 3322930
-0.252144 -0.132722 1.873741 3322930
-0.241894 -0.144002 1.899515 3322930
-0.242756 -0.153834 1.900697 3322930
-0.261705 -0.176817 1.889841 3322930
-0.248744 -0.188330 1.879192 3322930
-0.245344 -0.183330 1.904243 3322930
-0.246207 -0.193162 1.905424 3322930
-0.247070 -0.202994 1.906606 3322930
-0.250399 -0.209643 1.909428 3322930
-0.235763 -0.100218 1.887884 3322930
-0.233152 -0.096239 1.885216 3322930
-0.208794 -0.098783 1.882963 3322930
-0.234877 -0.115903 1.887580 3322930
-0.238372 -0.120025 1.875378 3322930
-0.238966 -0.140209 1.883912 3322930
-0.238090 -0.141179 1.895578 3322930
-0.221540 -0.159677 1.890545 3322930
-0.239191 -0.165063 1.893489 3322930
-0.249828 -0.188457 1.893229 3322930
-0.240916 -0.184727 1.895853 3322930
-0.247181 -0.201067 1.905984 3322930
-0.236539 -0.208006 1.899925 3322930
-0.246046 -0.211327 1.908313 3322930
-0.227861 -0.087804 1.875644 3322930
-0.228724 -0.097636 1.876826 3322930
-0.236304 -0.120315 1.881516 3322930
-0.230449 -0.117300 1.879190 3322930
-0.231312 -0.127132 1.880372 3322930
-0.232174 -0.136964 1.881554 3322930
-0.233037 -0.146796 1.882735 3322930
-0.233900 -0.156628 1.883917 3322930
-0.245001 -0.176236 1.889865 3322930
-0.235795 -0.175995 1.887389 3322930
-0.242886 -0.186131 1.875957 3322930
-0.225436 -0.203751 1.896333 3322930
-0.238213 -0.205788 1.889826 3322930
-0.245217 -0.209061 1.893589 3322930
-0.219114 -0.094514 1.871006 3322930
-0.224356 -0.095812 1.875366 3322930
-0.231438 -0.076865 1.870020 3322930
-0.230425 -0.125223 1.873646 3322930
-0.226883 -0.128529 1.871982 3322930
-0.227746 -0.138361 1.873164 3322930
-0.228609 -0.148193 1.874346 3322930
-0.237472 -0.165152 1.871860 3322930
-0.230334 -0.167857 1.876709 3322930
-0.231197 -0.177689 1.877891 3322930
-0.245901 -0.204626 1.878180 3322930
-0.231280 -0.202947 1.875714 3322930
-0.247598 -0.218060 1.887724 3322930
-0.223743 -0.211445 1.877531 3322930
-0.233243 -0.090984 1.847535 3322930
-0.219867 -0.100430 1.860046 3322930
-0.211538 -0.106611 1.859783 3322930
-0.199571 -0.108645 1.864556 3322930
-0.222586 -0.125688 1.861951 3322930
-0.223317 -0.139758 1.864774 3322930
-0.224180 -0.149590 1.865956 3322930
-0.223460 -0.159964 1.863619 3322930
-0.226691 -0.175006 1.858131 3322930
-0.226768 -0.179086 1.869501 3322930
-0.227631 -0.188918 1.870683 3322930
-0.222234 -0.193005 1.890441 3322930
-0.229356 -0.208583 1.873047 3322930
-0.236749 -0.206546 1.890744 3322930
-0.214576 -0.091995 1.850475 3322930
-0.224407 -0.108972 1.854173 3322930
-0.216301 -0.111659 1.852838 3322930
-0.217164 -0.121491 1.854020 3322930
-0.218026 -0.131323 1.855202 3322930
-0.218889 -0.141155 1.856384 3322930
-0.215267 -0.162931 1.847845 3322930
-0.220614 -0.160819 1.858748 3322930
-0.221477 -0.170651 1.859929 3322930
-0.220961 -0.180844 1.866465 3322930
-0.233390 -0.157319 1.862903 3322930
-0.224065 -0.200148 1.863475 3322930
-0.224928 -0.209980 1.864657 3322930
-0.225790 -0.219812 1.865839 3322930
-0.218284 -0.088462 1.846403 3322930
-0.213906 -0.082914 1.845541 3322930
-0.223979 -0.110988 1.834249 3322930
-0.212735 -0.122888 1.845630 3322930
-0.213598 -0.132720 1.846812 3322930
-0.225783 -0.128158 1.851470 3322930
-0.240885 -0.149395 1.855615 3322930
-0.221833 -0.172135 1.841944 3322930
-0.217049 -0.172048 1.851539 3322930
-0.210816 -0.181213 1.843612 3322930
-0.218015 -0.193202 1.856310 3322930
-0.232663 -0.185073 1.851798 3322930
-0.220499 -0.211377 1.856267 3322930
-0.221362 -0.221209 1.857449 3322930
-0.205719 -0.094789 1.833695 3322930
-0.199183 -0.106014 1.821672 3322930
-0.207444 -0.114453 1.836059 3322930
-0.208307 -0.124285 1.837240 3322930
-0.209170 -0.134117 1.838422 3322930
-0.210032 -0.143949 1.839604 3322930
-0.210895 -0.153781 1.840786 3322930
-0.211757 -0.163613 1.841968 3322930
-0.212620 -0.173445 1.843150 3322930
-0.209095 -0.188099 1.853202 3322930
-0.214345 -0.193110 1.845513 3322930
-0.215208 -0.202942 1.846695 3322930
-0.216071 -0.212774 1.847877 3322930
-0.216933 -0.222606 1.849059 3322930
-0.208375 -0.073613 1.826634 3322930
-0.199272 -0.115478 1.821411 3322930
-0.213238 -0.097716 1.817604 3322930
-0.203878 -0.125682 1.828850 3322930
-0.204417 -0.151215 1.829605 3322930
-0.205604 -0.145346 1.831214 3322930
-0.201996 -0.141153 1.834511 3322930
-0.226837 -0.140995 1.835266 3322930
-0.209702 -0.185984 1.837628 3322930
-0.229198 -0.179103 1.845278 3322930
-0.210964 -0.187172 1.816128 3322930
-0.210780 -0.204339 1.838305 3322930
-0.211642 -0.214171 1.839487 3322930
-0.212505 -0.224003 1.840669 3322930
-0.196862 -0.097583 1.816915 3322930
-0.197725 -0.107415 1.818097 3322930
-0.204003 -0.105028 1.835393 3322930
-0.218046 -0.121133 1.811224 3322930
-0.200313 -0.136911 1.821642 3322930
-0.201175 -0.146743 1.822824 3322930
-0.189845 -0.155059 1.838445 3322930
-0.207584 -0.172736 1.843574 3322930
-0.203763 -0.176239 1.826370 3322930
-0.201755 -0.196820 1.817474 3322930
-0.199533 -0.200312 1.825447 3322930
-0.199124 -0.195392 1.815149 3322930
-0.207214 -0.215568 1.831097 3322930
-0.195247 -0.220256 1.840028 3322930
-0.192434 -0.098980 1.808525 3322930
-0.193296 -0.108812 1.809707 3322930
-0.194159 -0.118644 1.810889 3322930
-0.195243 -0.115533 1.801034 3322930
-0.199228 -0.128346 1.797873 3322930
-0.199198 -0.137427 1.805558 3322930
-0.183886 -0.161706 1.830722 3322930
-0.198472 -0.167804 1.816798 3322930
-0.199335 -0.177636 1.817980 3322930
-0.200198 -0.187469 1.819162 3322930
-0.201060 -0.197301 1.820343 3322930
-0.201923 -0.207133 1.821525 3322930
-0.198215 -0.233950 1.834955 3322930
-0.203648 -0.226797 1.823889 3322930
-0.175278 -0.120238 1.802897 3322930
-0.183523 -0.120593 1.805489 3322930
-0.189731 -0.120041 1.802499 3322930
-0.182289 -0.122877 1.792670 3322930
-0.191456 -0.139705 1.804863 3322930
-0.192318 -0.149537 1.806044 3322930
-0.190065 -0.155421 1.805744 3322930
-0.194044 -0.169201 1.808408 3322930
-0.190981 -0.182312 1.813929 3322930
-0.199680 -0.189275 1.803888 3322930
-0.196632 -0.198698 1.811954 3322930
-0.197494 -0.208530 1.813135 3322930
-0.198357 -0.218362 1.814317 3322930
-0.181633 -0.236147 1.816686 3322930
-0.183577 -0.101774 1.791745 3322930
-0.172251 -0.115214 1.793035 3322930
-0.171125 -0.119642 1.794960 3322930
-0.186165 -0.131270 1.795291 3322930
-0.183161 -0.142917 1.791817 3322930
-0.205801 -0.141831 1.795577 3322930
-0.199052 -0.166343 1.812739 3322930
-0.189615 -0.170599 1.800018 3322930
-0.190478 -0.180431 1.801200 3322930
-0.191341 -0.190263 1.802382 3322930
-0.192203 -0.200095 1.803564 3322930
-0.193066 -0.209927 1.804745 3322930
-0.206744 -0.210088 1.792940 3322930
-0.196658 -0.230860 1.795752 3322930
-0.120126 -0.090534 1.950540 3322930
-0.126424 -0.097489 1.952718 3322930
-0.139056 -0.102573 1.964017 3322930
-0.128149 -0.117153 1.955082 3322930
-0.129012 -0.126985 1.956264 3322930
-0.129874 -0.136817 1.957446 3322930
-0.130737 -0.146649 1.958628 3322930
-0.131600 -0.156481 1.959810 3322930
-0.132462 -0.166314 1.960991 3322930
-0.119416 -0.178469 1.970377 3322930
-0.125884 -0.198080 1.946192 3322930
-0.135050 -0.195810 1.964537 3322930
-0.146110 -0.209101 1.976713 3322930
-0.137683 -0.223915 1.973670 3322930
-0.128967 -0.098269 1.933122 3322930
-0.121995 -0.098886 1.944329 3322930
-0.127636 -0.101734 1.954056 3322930
-0.123721 -0.118550 1.946692 3322930
-0.124583 -0.128382 1.947874 3322930
-0.129676 -0.133744 1.981517 3322930
-0.135385 -0.150801 1.948298 3322930
-0.109636 -0.158146 1.957713 3322930
-0.128034 -0.167711 1.952601 3322930
-0.128897 -0.177543 1.953783 3322930
-0.114121 -0.185533 1.965600 3322930
-0.130678 -0.189284 1.967551 3322930
-0.131798 -0.195388 1.945226 3322930
-0.132347 -0.216871 1.958511 3322930
-0.116704 -0.090451 1.934757 3322930
-0.108587 -0.102345 1.923673 3322930
-0.089933 -0.094881 1.918103 3322930
-0.119292 -0.119947 1.938302 3322930
-0.120155 -0.129779 1.939484 3322930
-0.138536 -0.146215 1.935248 3322930
-0.112485 -0.144174 1.916151 3322930
-0.122743 -0.159276 1.943030 3322930
-0.125793 -0.168411 1.930206 3322930
-0.124468 -0.178940 1.945393 3322930
-0.125331 -0.188772 1.946575 3322930
-0.122240 -0.185127 1.945635 3322930
-0.124744 -0.212855 1.964836 3322930
-0.116792 -0.211412 1.945254 3322930
-0.112018 -0.085239 1.919581 3322930
-0.113139 -0.101680 1.927549 3322930
-0.109087 -0.128764 1.952862 3322930
-0.114864 -0.121344 1.929912 3322930
-0.100083 -0.151279 1.931595 3322930
-0.101200 -0.142245 1.916268 3322930
-0.117452 -0.150840 1.933458 3322930
-0.118314 -0.160673 1.934640 3322930
-0.119177 -0.170505 1.935822 3322930
-0.120040 -0.180337 1.937003 3322930
-0.113512 -0.175701 1.943973 3322930
-0.121765 -0.200001 1.939367 3322930
-0.122628 -0.209833 1.940549 3322930
-0.122270 -0.205008 1.936758 3322930
-0.124173 -0.088071 1.911123 3322930
-0.108710 -0.103077 1.919159 3322930
-0.109573 -0.112909 1.920341 3322930
-0.110435 -0.122741 1.921522 3322930
-0.116004 -0.144143 1.915488 3322930
-0.112161 -0.142405 1.923886 3322930
-0.113023 -0.152238 1.925068 3322930
-0.103993 -0.175855 1.926716 3322930
-0.114749 -0.171902 1.927432 3322930
-0.115611 -0.181734 1.928613 3322930
-0.116474 -0.191566 1.929795 3322930
-0.117337 -0.201398 1.930977 3322930
-0.118199 -0.211230 1.932159 3322930
-0.119062 -0.221062 1.933341 3322930
-0.103419 -0.094642 1.909587 3322930
-0.115561 -0.102762 1.926254 3322930
-0.114524 -0.113127 1.896211 3322930
-0.109304 -0.128653 1.917959 3322930
-0.086168 -0.128501 1.916540 3322930
-0.114352 -0.147256 1.924791 3322930
-0.108595 -0.153635 1.916678 3322930
-0.103833 -0.166820 1.908900 3322930
-0.110320 -0.173299 1.919042 3322930
-0.104327 -0.198329 1.919239 3322930
-0.104847 -0.193722 1.914081 3322930
-0.112934 -0.215497 1.908591 3322930
-0.105174 -0.213550 1.918967 3322930
-0.114634 -0.222459 1.924951 3322930
-0.086734 -0.094268 1.899456 3322930
-0.120318 -0.091738 1.902554 3322930
-0.100716 -0.115703 1.903561 3322930
-0.119084 -0.114791 1.891661 3322930
-0.102441 -0.135367 1.905924 3322930
-0.103304 -0.145200 1.907106 3322930
-0.117191 -0.160623 1.897027 3322930
-0.105029 -0.164864 1.909470 3322930
-0.105892 -0.174696 1.910652 3322930
-0.095774 -0.179080 1.912627 3322930
-0.107617 -0.194360 1.913015 3322930
-0.100136 -0.204598 1.899302 3322930
-0.109342 -0.214024 1.915379 3322930
-0.110205 -0.223856 1.916561 3322930
-0.094562 -0.097436 1.892807 3322930
-0.108722 -0.107096 1.889660 3322930
-0.096287 -0.117100 1.895171 3322930
-0.097150 -0.126932 1.896353 3322930
-0.098013 -0.136764 1.897535 3322930
-0.095105 -0.153505 1.898168 3322930
-0.099738 -0.156429 1.899898 3322930
-0.093711 -0.165267 1.887000 3322930
-0.101463 -0.176093 1.902262 3322930
-0.102326 -0.185925 1.903444 3322930
-0.103189 -0.195757 1.904626 3322930
-0.091144 -0.201383 1.884481 3322930
-0.102670 -0.203183 1.911813 3322930
-0.105777 -0.225253 1.908171 3322930
-0.087084 -0.087809 1.887563 3322930
-0.094148 -0.102341 1.882674 3322930
-0.091859 -0.118497 1.886781 3322930
-0.092722 -0.128329 1.887963 3322930
-0.085783 -0.127278 1.875843 3322930
-0.094447 -0.147994 1.890326 3322930
-0.095310 -0.157826 1.891508 3322930
-0.096614 -0.161877 1.880534 3322930
-0.095577 -0.179987 1.893383 3322930
-0.097371 -0.196045 1.879987 3322930
-0.084969 -0.199206 1.907033 3322930
-0.099623 -0.206986 1.897417 3322930
-0.100486 -0.216818 1.898599 3322930
-0.105605 -0.236190 1.904581 3322930
-0.085705 -0.100230 1.876027 3322930
-0.083033 -0.110338 1.870335 3322930
-0.094575 -0.112702 1.879972 3322930
-0.097960 -0.105471 1.899191 3322930
-0.089156 -0.139559 1.880755 3322930
-0.086173 -0.162622 1.907221 3322930
-0.090881 -0.159223 1.883118 3322930
-0.091744 -0.169055 1.884300 3322930
-0.092607 -0.178887 1.885482 3322930
-0.094783 -0.178364 1.904611 3322930
-0.094332 -0.198551 1.887846 3322930
-0.093276 -0.207791 1.884040 3322930
-0.096057 -0.218215 1.890209 3322930
-0.096920 -0.228047 1.891391 3322930
-0.081277 -0.101627 1.867637 3322930
-0.076689 -0.117324 1.877837 3322930
-0.088135 -0.111224 1.864108 3322930
-0.083865 -0.131124 1.871183 3322930
-0.084727 -0.140956 1.872365 3322930
-0.085590 -0.150788 1.873547 3322930
-0.086453 -0.160620 1.874728 3322930
-0.085770 -0.166069 1.879642 3322930
-0.088178 -0.180284 1.877092 3322930
-0.089041 -0.190116 1.878274 3322930
-0.093305 -0.192114 1.878753 3322930
-0.097756 -0.197503 1.872829 3322930
-0.091629 -0.219612 1.881819 3322930
-0.092491 -0.229444 1.883001 3322930
-0.076848 -0.103024 1.859248 3322930
-0.089300 -0.127735 1.852501 3322930
-0.078574 -0.122688 1.861611 3322930
-0.095526 -0.129866 1.870400 3322930
-0.074184 -0.121579 1.862824 3322930
-0.081162 -0.152185 1.865157 3322930
-0.082024 -0.162017 1.866339 3322930
-0.082887 -0.171849 1.867520 3322930
-0.082801 -0.184642 1.873517 3322930
-0.084612 -0.191513 1.869884 3322930
-0.085475 -0.201345 1.871066 3322930
-0.091849 -0.214260 1.883437 3322930
-0.108683 -0.208540 1.871696 3322930
-0.088063 -0.230841 1.874611 3322930
-0.073222 -0.099236 1.842791 3322930
-0.073283 -0.114253 1.852039 3322930
-0.074145 -0.124086 1.853221 3322930
-0.075008 -0.133918 1.854403 3322930
-0.087044 -0.149350 1.858457 3322930
-0.067078 -0.128893 1.839075 3322930
-0.077596 -0.163414 1.857949 3322930
-0.078459 -0.173246 1.859130 3322930
-0.079321 -0.183078 1.860312 3322930
-0.057483 -0.211725 1.850859 3322930
-0.075247 -0.199510 1.865263 3322930
-0.081909 -0.212574 1.863858 3322930
-0.068122 -0.233941 1.868459 3322930
-0.067535 -0.222441 1.867337 3322930
-0.070333 -0.096248 1.831529 3322930
-0.073283 -0.114253 1.852039 3322930
-0.074145 -0.124086 1.853221 3322930
-0.096028 -0.145823 1.836832 3322930
-0.081058 -0.143518 1.868816 3322930
-0.076485 -0.148713 1.857803 3322930
-0.077596 -0.163414 1.857949 3322930
-0.078459 -0.173246 1.859130 3322930
-0.079321 -0.183078 1.860312 3322930
-0.080184 -0.192910 1.861494 3322930
-0.081047 -0.202742 1.862676 3322930
-0.081909 -0.212574 1.863858 3322930
-0.080557 -0.216075 1.846577 3322930
-0.083635 -0.232238 1.866221 3322930
-0.100807 -0.097277 1.847588 3322930
-0.079306 -0.122876 1.841886 3322930
-0.080145 -0.134596 1.876620 3322930
-0.083559 -0.133714 1.849856 3322930
-0.084421 -0.143546 1.851038 3322930
-0.085284 -0.153378 1.852220 3322930
-0.086146 -0.163210 1.853402 3322930
-0.087009 -0.173042 1.854583 3322930
-0.103156 -0.188992 1.831661 3322930
-0.098564 -0.187393 1.845684 3322930
-0.089597 -0.202538 1.858129 3322930
-0.090460 -0.212370 1.859311 3322930
-0.085766 -0.228573 1.858044 3322930
-0.092185 -0.232035 1.861674 3322930
-0.091206 -0.114781 1.848426 3322930
-0.090384 -0.113846 1.842945 3322930
-0.093922 -0.132091 1.848621 3322930
-0.092109 -0.133510 1.845309 3322930
-0.093494 -0.156741 1.855655 3322930
-0.093834 -0.153174 1.847673 3322930
-0.094697 -0.163006 1.848854 3322930
-0.091320 -0.165873 1.861725 3322930
-0.114000 -0.189718 1.842847 3322930
-0.090701 -0.216376 1.851401 3322930
-0.098148 -0.202335 1.853582 3322930
-0.095036 -0.216476 1.849541 3322930
-0.099873 -0.221999 1.855945 3322930
-0.099305 -0.227517 1.869124 3322930
-0.098072 -0.103810 1.837216 3322930
-0.098934 -0.113643 1.838398 3322930
-0.099686 -0.122836 1.835722 3322930
-0.114285 -0.122935 1.825517 3322930
-0.101294 -0.153821 1.831332 3322930
-0.102385 -0.152971 1.843125 3322930
-0.105726 -0.159818 1.825425 3322930
-0.104110 -0.172635 1.845489 3322930
-0.105847 -0.191159 1.829220 3322930
-0.105835 -0.192299 1.847853 3322930
-0.106698 -0.202131 1.849035 3322930
-0.107561 -0.211963 1.850216 3322930
-0.123187 -0.207708 1.866255 3322930
-0.109286 -0.231627 1.852580 3322930
-0.102523 -0.100708 1.839876 3322930
-0.109663 -0.114820 1.837854 3322930
-0.122836 -0.152205 1.829308 3322930
-0.109210 -0.133103 1.836215 3322930
-0.110073 -0.142935 1.837397 3322930
-0.110935 -0.152767 1.838578 3322930
-0.121991 -0.143070 1.826016 3322930
-0.116174 -0.190031 1.842710 3322930
-0.127860 -0.193934 1.835851 3322930
-0.114386 -0.192095 1.843306 3322930
-0.115249 -0.201927 1.844488 3322930
-0.117905 -0.200910 1.847298 3322930
-0.116974 -0.221592 1.846851 3322930
-0.116707 -0.227429 1.872803 3322930
-0.106824 -0.100844 1.818182 3322930
-0.116035 -0.113235 1.829304 3322930
-0.122242 -0.129735 1.821098 3322930
-0.105622 -0.144582 1.834910 3322930
-0.114821 -0.144037 1.843031 3322930
-0.094296 -0.154139 1.824899 3322930
-0.120349 -0.162396 1.835213 3322930
-0.134116 -0.190920 1.839816 3322930
-0.121767 -0.177908 1.839591 3322930
-0.122937 -0.191892 1.838759 3322930
-0.127669 -0.216963 1.858242 3322930
-0.115342 -0.185280 1.841511 3322930
-0.125524 -0.221388 1.842304 3322930
-0.126387 -0.231220 1.843486 3322930
-0.133094 -0.104068 1.822917 3322930
-0.129349 -0.097736 1.803796 3322930
-0.121131 -0.117957 1.825819 3322930
-0.103536 -0.116647 1.827968 3322930
-0.129078 -0.133862 1.819661 3322930
-0.109160 -0.155424 1.820109 3322930
-0.133101 -0.153709 1.837642 3322930
-0.129762 -0.172024 1.831848 3322930
-0.126885 -0.168253 1.827322 3322930
-0.131487 -0.191688 1.834212 3322930
-0.132350 -0.201520 1.835393 3322930
-0.133212 -0.211352 1.836575 3322930
-0.137282 -0.236201 1.836427 3322930
-0.134938 -0.231016 1.838939 3322930
-0.132274 -0.102996 1.819028 3322930
-0.133136 -0.112828 1.820210 3322930
-0.133999 -0.122660 1.821392 3322930
-0.147677 -0.135880 1.823782 3322930
-0.135724 -0.142324 1.823755 3322930
-0.136587 -0.152156 1.824937 3322930
-0.137450 -0.161988 1.826119 3322930
-0.130912 -0.183425 1.824614 3322930
-0.139175 -0.181652 1.828483 3322930
-0.144351 -0.186798 1.835757 3322930
-0.140900 -0.201317 1.830846 3322930
-0.141763 -0.211149 1.832028 3322930
-0.142626 -0.220981 1.833210 3322930
-0.154110 -0.230563 1.850354 3322930
-0.140824 -0.102792 1.814481 3322930
-0.128366 -0.122027 1.840356 3322930
-0.133410 -0.108534 1.826768 3322930
-0.141011 -0.141551 1.832071 3322930
-0.134921 -0.146420 1.823761 3322930
-0.145137 -0.151953 1.820390 3322930
-0.146000 -0.161785 1.821572 3322930
-0.144492 -0.167351 1.813355 3322930
-0.147725 -0.181449 1.823935 3322930
-0.148588 -0.191281 1.825117 3322930
-0.151321 -0.209324 1.839552 3322930
-0.150313 -0.210945 1.827481 3322930
-0.142993 -0.221173 1.828201 3322930
-0.137578 -0.224429 1.832808 3322930
-0.149375 -0.102589 1.809934 3322930
-0.150237 -0.112421 1.811116 3322930
-0.151100 -0.122253 1.812297 3322930
-0.151963 -0.132085 1.813479 3322930
-0.152825 -0.141917 1.814661 3322930
-0.138543 -0.143843 1.823511 3322930
-0.154551 -0.161581 1.817025 3322930
-0.151265 -0.179480 1.798220 3322930
-0.134635 -0.193959 1.801765 3322930
-0.157139 -0.191077 1.820570 3322930
-0.153122 -0.189283 1.804387 3322930
-0.158864 -0.210741 1.822934 3322930
-0.159727 -0.220573 1.824116 3322930
-0.183607 -0.226190 1.836381 3322930
-0.151904 -0.098043 1.801241 3322930
-0.138149 -0.106845 1.817147 3322930
-0.159651 -0.122049 1.807750 3322930
-0.160515 -0.139708 1.806226 3322930
-0.163414 -0.129809 1.808717 3322930
-0.162238 -0.151545 1.811296 3322930
-0.146916 -0.161805 1.812775 3322930
-0.163964 -0.171209 1.813659 3322930
-0.164826 -0.181041 1.814841 3322930
-0.165689 -0.190874 1.816023 3322930
-0.168180 -0.201898 1.807713 3322930
-0.183659 -0.224816 1.817362 3322930
-0.176150 -0.224097 1.818985 3322930
-0.178830 -0.232912 1.815437 3322930
-0.166476 -0.102181 1.800839 3322930
-0.157865 -0.111019 1.804104 3322930
-0.168201 -0.121845 1.803203 3322930
-0.169064 -0.131678 1.804385 3322930
-0.176323 -0.141587 1.800376 3322930
-0.170789 -0.151342 1.806749 3322930
-0.149531 -0.143068 1.802475 3322930
-0.172514 -0.171006 1.809112 3322930
-0.176214 -0.177917 1.819244 3322930
-0.174240 -0.190670 1.811476 3322930
-0.175102 -0.200502 1.812658 3322930
-0.175965 -0.210334 1.813840 3322930
-0.179277 -0.239721 1.819968 3322930
-0.177690 -0.229998 1.816203 3322930
-0.194053 -0.103047 1.803137 3322930
-0.182712 -0.118338 1.808332 3322930
-0.190029 -0.130418 1.800164 3322930
-0.183478 -0.138165 1.803291 3322930
-0.178477 -0.141306 1.801020 3322930
-0.179340 -0.151138 1.802202 3322930
-0.182440 -0.156007 1.798172 3322930
-0.180536 -0.173480 1.811932 3322930
-0.181927 -0.180634 1.805747 3322930
-0.205351 -0.193966 1.800700 3322930
-0.194983 -0.194765 1.810290 3322930
-0.173775 -0.218889 1.802420 3322930
-0.185378 -0.219962 1.810474 3322930
-0.194937 -0.225721 1.819330 3322930
-0.183577 -0.101774 1.791745 3322930
-0.173100 -0.102653 1.791841 3322930
-0.185302 -0.121438 1.794109 3322930
-0.191669 -0.134724 1.803648 3322930
-0.203734 -0.140119 1.803933 3322930
-0.188475 -0.157370 1.822077 3322930
-0.185202 -0.164878 1.796370 3322930
-0.187083 -0.165528 1.802043 3322930
-0.186344 -0.186131 1.806078 3322930
-0.190873 -0.180642 1.806610 3322930
-0.192203 -0.200095 1.803564 3322930
-0.193066 -0.209927 1.804745 3322930
-0.190749 -0.225307 1.803694 3322930
-0.194791 -0.229591 1.807109 3322930
-0.125561 -0.087657 1.951537 3322930
-0.115465 -0.112399 1.954780 3322930
-0.138733 -0.130489 1.943705 3322930
-0.128149 -0.117153 1.955082 3322930
-0.129012 -0.126985 1.956264 3322930
-0.119195 -0.148963 1.946441 3322930
-0.130737 -0.146649 1.958628 3322930
-0.111420 -0.172844 1.974350 3322930
-0.130296 -0.181060 1.968225 3322930
-0.142635 -0.180061 1.972562 3322930
-0.138681 -0.208481 1.950292 3322930
-0.135050 -0.195810 1.964537 3322930
-0.121695 -0.211632 1.956828 3322930
-0.136776 -0.215474 1.966901 3322930
-0.134112 -0.087453 1.946990 3322930
-0.122982 -0.113295 1.954976 3322930
-0.129749 -0.103876 1.960201 3322930
-0.135646 -0.124533 1.953847 3322930
-0.137562 -0.126782 1.951717 3322930
-0.138425 -0.136614 1.952899 3322930
-0.139288 -0.146446 1.954081 3322930
-0.148020 -0.163910 1.950478 3322930
-0.141013 -0.166110 1.956444 3322930
-0.141876 -0.175942 1.957626 3322930
-0.142738 -0.185774 1.958808 3322930
-0.143601 -0.195606 1.959990 3322930
-0.159374 -0.200690 1.973164 3322930
-0.169437 -0.216184 1.941771 3322930
-0.142662 -0.087250 1.942442 3322930
-0.135805 -0.103164 1.938197 3322930
-0.150137 -0.093437 1.947548 3322930
-0.145250 -0.116746 1.945988 3322930
-0.160043 -0.123479 1.950394 3322930
-0.146975 -0.136410 1.948352 3322930
-0.135944 -0.131099 1.958548 3322930
-0.164693 -0.140073 1.947978 3322930
-0.149563 -0.165906 1.951897 3322930
-0.134772 -0.156227 1.944226 3322930
-0.141782 -0.183163 1.968529 3322930
-0.146355 -0.199092 1.938228 3322930
-0.158837 -0.204694 1.961462 3322930
-0.134537 -0.230070 1.948532 3322930
-0.151213 -0.087046 1.937895 3322930
-0.147809 -0.083504 1.923435 3322930
-0.167759 -0.104044 1.949021 3322930
-0.153801 -0.116542 1.941441 3322930
-0.154663 -0.126374 1.942623 3322930
-0.155526 -0.136206 1.943805 3322930
-0.161856 -0.157564 1.945962 3322930
-0.131908 -0.134361 1.950793 3322930
-0.170448 -0.151534 1.936715 3322930
-0.150352 -0.167667 1.952823 3322930
-0.162850 -0.204558 1.938704 3322930
-0.169512 -0.194906 1.935529 3322930
-0.161565 -0.205031 1.952077 3322930
-0.162427 -0.214863 1.953259 3322930
-0.159763 -0.086842 1.933348 3322930
-0.144044 -0.101814 1.938232 3322930
-0.161489 -0.106507 1.935712 3322930
-0.162351 -0.116339 1.936894 3322930
-0.163214 -0.126171 1.938076 3322930
-0.166258 -0.129488 1.950246 3322930
-0.164939 -0.145835 1.940439 3322930
-0.177492 -0.161434 1.958522 3322930
-0.193879 -0.172073 1.938843 3322930
-0.183475 -0.168906 1.935220 3322930
-0.164134 -0.195447 1.936421 3322930
-0.172181 -0.180299 1.948753 3322930
-0.170115 -0.204827 1.947530 3322930
-0.180556 -0.202622 1.946103 3322930
-0.168314 -0.086639 1.928801 3322930
-0.171854 -0.077400 1.926951 3322930
-0.183953 -0.108832 1.930523 3322930
-0.170902 -0.116135 1.932347 3322930
-0.171764 -0.125967 1.933528 3322930
-0.169155 -0.137756 1.916133 3322930
-0.171461 -0.159060 1.940017 3322930
-0.166850 -0.153840 1.950652 3322930
-0.175215 -0.165295 1.938256 3322930
-0.173298 -0.165586 1.947356 3322930
-0.179140 -0.194725 1.938195 3322930
-0.166727 -0.194911 1.950709 3322930
-0.178666 -0.204624 1.942983 3322930
-0.179528 -0.214456 1.944165 3322930
-0.176864 -0.086435 1.924254 3322930
-0.169412 -0.106465 1.932170 3322930
-0.178590 -0.106099 1.926618 3322930
-0.179452 -0.115931 1.927800 3322930
-0.181330 -0.141617 1.923832 3322930
-0.187783 -0.143361 1.932937 3322930
-0.205324 -0.132170 1.930788 3322930
-0.182903 -0.155260 1.932527 3322930
-0.183765 -0.165092 1.933709 3322930
-0.184628 -0.174924 1.934891 3322930
-0.185491 -0.184756 1.936072 3322930
-0.196031 -0.179584 1.952338 3322930
-0.189888 -0.211374 1.935341 3322930
-0.191545 -0.232186 1.937754 3322930
-0.194089 -0.087326 1.900064 3322930
-0.185723 -0.091037 1.925663 3322930
-0.194307 -0.093799 1.928635 3322930
-0.194610 -0.122819 1.911782 3322930
-0.190474 -0.127426 1.907478 3322930
-0.185406 -0.115767 1.933533 3322930
-0.202461 -0.159933 1.920221 3322930
-0.198538 -0.152770 1.927524 3322930
-0.192316 -0.164888 1.929162 3322930
-0.193179 -0.174720 1.930343 3322930
-0.194041 -0.184552 1.931525 3322930
-0.194904 -0.194384 1.932707 3322930
-0.184336 -0.202793 1.952118 3322930
-0.196629 -0.214048 1.935071 3322930
-0.180030 -0.077085 1.922036 3322930
-0.181902 -0.099046 1.921286 3322930
-0.191681 -0.112285 1.910817 3322930
-0.196553 -0.115524 1.918705 3322930
-0.197416 -0.125356 1.919887 3322930
-0.203216 -0.133508 1.930106 3322930
-0.196062 -0.139752 1.900675 3322930
-0.200004 -0.154852 1.923433 3322930
-0.190675 -0.148034 1.933524 3322930
-0.194854 -0.180727 1.918782 3322930
-0.212328 -0.163897 1.908834 3322930
-0.190881 -0.193210 1.911565 3322930
-0.202500 -0.195630 1.923954 3322930
-0.205180 -0.213845 1.930524 3322930
-0.202695 -0.082195 1.915876 3322930
-0.199689 -0.094425 1.892908 3322930
-0.204241 -0.105488 1.912976 3322930
-0.194471 -0.124501 1.920329 3322930
-0.205966 -0.125152 1.915340 3322930
-0.206829 -0.134985 1.916522 3322930
-0.207692 -0.144817 1.917704 3322930
-0.212704 -0.150551 1.936274 3322930
-0.209417 -0.164481 1.920067 3322930
-0.203179 -0.180541 1.906457 3322930
-0.211142 -0.184145 1.922431 3322930
-0.222395 -0.194863 1.915763 3322930
-0.220514 -0.203115 1.930864 3322930
-0.213730 -0.213641 1.925977 3322930
-0.211066 -0.085621 1.906066 3322930
-0.199162 -0.092721 1.934259 3322930
-0.212792 -0.105285 1.908429 3322930
-0.213654 -0.115117 1.909611 3322930
-0.214517 -0.124949 1.910793 3322930
-0.215380 -0.134781 1.911975 3322930
-0.217718 -0.145488 1.904041 3322930
-0.222665 -0.184274 1.916464 3322930
-0.212050 -0.164603 1.915849 3322930
-0.219227 -0.177000 1.924482 3322930
-0.225839 -0.194288 1.907090 3322930
-0.219532 -0.202761 1.911673 3322930
-0.223366 -0.206128 1.915697 3322930
-0.222281 -0.213437 1.921429 3322930
-0.219617 -0.085417 1.901519 3322930
-0.230989 -0.087298 1.902278 3322930
-0.221342 -0.105081 1.903882 3322930
-0.222205 -0.114913 1.905064 3322930
-0.223067 -0.124745 1.906246 3322930
-0.219275 -0.135400 1.889495 3322930
-0.224793 -0.144409 1.908610 3322930
-0.225655 -0.154241 1.909791 3322930
-0.222343 -0.178525 1.923679 3322930
-0.227381 -0.173906 1.912155 3322930
-0.228243 -0.183738 1.913337 3322930
-0.229106 -0.193570 1.914519 3322930
-0.227280 -0.219952 1.916567 3322930
-0.237970 -0.190018 1.910505 3322930
-0.224227 -0.077820 1.914508 3322930
-0.210273 -0.077471 1.893110 3322930
-0.229893 -0.104877 1.899335 3322930
-0.230755 -0.114710 1.900517 3322930
-0.230532 -0.134064 1.911066 3322930
-0.226812 -0.122552 1.914868 3322930
-0.233343 -0.144206 1.904062 3322930
-0.234206 -0.154038 1.905244 3322930
-0.235069 -0.163870 1.906426 3322930
-0.235931 -0.173702 1.907608 3322930
-0.236794 -0.183534 1.908790 3322930
-0.237657 -0.193366 1.909972 3322930
-0.238519 -0.203198 1.911153 3322930
-0.239382 -0.213030 1.912335 3322930
-0.236718 -0.085010 1.892424 3322930
-0.235491 -0.097327 1.896867 3322930
-0.238443 -0.104674 1.894788 3322930
-0.239306 -0.114506 1.895970 3322930
-0.240169 -0.124338 1.897152 3322930
-0.241031 -0.134170 1.898333 3322930
-0.244199 -0.126305 1.898711 3322930
-0.242756 -0.153834 1.900697 3322930
-0.243619 -0.163666 1.901879 3322930
-0.238270 -0.155168 1.906894 3322930
-0.245344 -0.183330 1.904243 3322930
-0.246207 -0.193162 1.905424 3322930
-0.247070 -0.202994 1.906606 3322930
-0.242220 -0.216863 1.908545 3322930
-0.136776 -0.215474 1.966901 3322930
-0.131945 -0.216998 1.957748 3322930
-0.127114 -0.218522 1.948595 3322930
-0.125230 -0.225882 1.941121 3322930
-0.110490 -0.212778 1.912268 3322930
-0.112621 -0.223094 1.921137 3322930
-0.124271 -0.209469 1.895928 3322930
-0.102959 -0.226142 1.902832 3322930
-0.098128 -0.227666 1.893679 3322930
-0.093297 -0.229190 1.884527 3322930
-0.103341 -0.237308 1.867075 3322930
-0.082936 -0.241977 1.863673 3322930
-0.145326 -0.215270 1.962353 3322930
-0.125495 -0.208296 1.968453 3322930
-0.135664 -0.218318 1.944048 3322930
-0.130833 -0.219842 1.934895 3322930
-0.126002 -0.221366 1.925743 3322930
-0.121171 -0.222890 1.916590 3322930
-0.116340 -0.224414 1.907438 3322930
-0.113001 -0.245677 1.901900 3322930
-0.106678 -0.227462 1.889132 3322930
-0.101847 -0.228986 1.879980 3322930
-0.097016 -0.230511 1.870827 3322930
-0.098778 -0.229902 1.841272 3322930
-0.154218 -0.210685 1.959457 3322930
-0.149046 -0.216591 1.948654 3322930
-0.144215 -0.218115 1.939501 3322930
-0.139384 -0.219639 1.930348 3322930
-0.134553 -0.221163 1.921196 3322930
-0.128819 -0.225119 1.903078 3322930
-0.124891 -0.224211 1.902890 3322930
-0.120060 -0.225735 1.893738 3322930
-0.115229 -0.227259 1.884585 3322930
-0.098070 -0.249848 1.863759 3322930
-0.105567 -0.230307 1.866280 3322930
-0.100736 -0.231831 1.857127 3322930
-0.171778 -0.216624 1.958782 3322930
-0.158829 -0.225215 1.946053 3322930
-0.154972 -0.200227 1.938178 3322930
-0.157471 -0.219118 1.932230 3322930
-0.143103 -0.220959 1.916649 3322930
-0.140980 -0.207605 1.901379 3322930
-0.133441 -0.224007 1.898343 3322930
-0.124114 -0.206702 1.893355 3322930
-0.109646 -0.234115 1.871296 3322930
-0.118948 -0.228579 1.870885 3322930
-0.114117 -0.230103 1.861733 3322930
-0.109286 -0.231627 1.852580 3322930
-0.170978 -0.214659 1.948712 3322930
-0.161205 -0.216541 1.930703 3322930
-0.165511 -0.207302 1.930625 3322930
-0.156485 -0.219231 1.921254 3322930
-0.136993 -0.223811 1.910645 3322930
-0.146823 -0.222279 1.902949 3322930
-0.126934 -0.209526 1.891870 3322930
-0.140682 -0.239472 1.897031 3322930
-0.132330 -0.226852 1.875491 3322930
-0.127499 -0.228376 1.866338 3322930
-0.122668 -0.229900 1.857186 3322930
-0.117837 -0.231424 1.848033 3322930
-0.179528 -0.214456 1.944165 3322930
-0.174270 -0.224615 1.933125 3322930
-0.173268 -0.209347 1.936912 3322930
-0.180148 -0.211596 1.911049 3322930
-0.167909 -0.224162 1.920354 3322930
-0.155373 -0.222076 1.898402 3322930
-0.150542 -0.223600 1.889249 3322930
-0.128568 -0.220202 1.883659 3322930
-0.140880 -0.226648 1.870944 3322930
-0.136049 -0.228172 1.861791 3322930
-0.131218 -0.229696 1.852639 3322930
-0.115786 -0.217647 1.846352 3322930
-0.207610 -0.202608 1.941047 3322930
-0.182948 -0.223305 1.946111 3322930
-0.178417 -0.217300 1.921313 3322930
-0.169955 -0.225234 1.906029 3322930
-0.166810 -0.220158 1.892951 3322930
-0.163924 -0.221872 1.893855 3322930
-0.160123 -0.214582 1.894747 3322930
-0.154844 -0.229543 1.891800 3322930
-0.149431 -0.226444 1.866397 3322930
-0.144600 -0.227968 1.857244 3322930
-0.139769 -0.229492 1.848091 3322930
-0.134938 -0.231016 1.838939 3322930
-0.196629 -0.214048 1.935071 3322930
-0.176159 -0.228497 1.937461 3322930
-0.186967 -0.217096 1.916766 3322930
-0.175307 -0.211160 1.902971 3322930
-0.183034 -0.215579 1.908101 3322930
-0.183911 -0.225498 1.889664 3322930
-0.153908 -0.211028 1.875241 3322930
-0.162812 -0.224717 1.871002 3322930
-0.158249 -0.235317 1.874740 3322930
-0.155764 -0.233466 1.856622 3322930
-0.149131 -0.248996 1.829813 3322930
-0.143064 -0.236089 1.837591 3322930
-0.209697 -0.221116 1.940780 3322930
-0.190579 -0.210720 1.924253 3322930
-0.206557 -0.213053 1.910379 3322930
-0.190687 -0.218417 1.903066 3322930
-0.185856 -0.219941 1.893913 3322930
-0.181025 -0.221465 1.884760 3322930
-0.176194 -0.222989 1.875608 3322930
-0.171363 -0.224513 1.866455 3322930
-0.166532 -0.226037 1.857303 3322930
-0.174191 -0.219097 1.855985 3322930
-0.144210 -0.214108 1.821534 3322930
-0.152039 -0.230609 1.829845 3322930
-0.213730 -0.213641 1.925977 3322930
-0.197373 -0.233164 1.897064 3322930
-0.204068 -0.216689 1.907671 3322930
-0.201792 -0.217248 1.909126 3322930
-0.207214 -0.219709 1.890763 3322930
-0.174895 -0.214860 1.882189 3322930
-0.182184 -0.228844 1.861104 3322930
-0.180618 -0.230444 1.854905 3322930
-0.179295 -0.230583 1.843433 3322930
-0.162446 -0.236291 1.851728 3322930
-0.167462 -0.229434 1.825638 3322930
-0.166092 -0.230243 1.827553 3322930
-0.222281 -0.213437 1.921429 3322930
-0.215288 -0.209841 1.913927 3322930
-0.212632 -0.213421 1.912914 3322930
-0.204599 -0.225479 1.903713 3322930
-0.212856 -0.226331 1.882112 3322930
-0.194990 -0.203344 1.874254 3322930
-0.193295 -0.222582 1.866514 3322930
-0.188464 -0.224106 1.857361 3322930
-0.168557 -0.223227 1.859257 3322930
-0.178802 -0.227154 1.839056 3322930
-0.173971 -0.228678 1.829903 3322930
-0.175062 -0.228260 1.824127 3322930
-0.230831 -0.213234 1.916882 3322930
-0.226000 -0.214758 1.907730 3322930
-0.227515 -0.213765 1.903550 3322930
-0.216338 -0.217806 1.889424 3322930
-0.224922 -0.210535 1.872197 3322930
-0.206844 -0.227864 1.867789 3322930
-0.212226 -0.222296 1.871741 3322930
-0.206667 -0.226134 1.836046 3322930
-0.192183 -0.225426 1.843661 3322930
-0.187352 -0.226950 1.834509 3322930
-0.167459 -0.234450 1.833659 3322930
-0.177690 -0.229998 1.816203 3322930
-0.247987 -0.207600 1.919010 3322930
-0.237216 -0.220131 1.906842 3322930
-0.231836 -0.197307 1.893102 3322930
-0.228482 -0.220641 1.893640 3322930
-0.220058 -0.219126 1.875725 3322930
-0.215227 -0.220650 1.866572 3322930
-0.210396 -0.222174 1.857419 3322930
-0.211127 -0.213200 1.853641 3322930
-0.200734 -0.225222 1.839114 3322930
-0.205952 -0.233082 1.830060 3322930
-0.191072 -0.228270 1.820809 3322930
-0.186241 -0.229795 1.811656 3322930
-0.261466 -0.216153 1.906439 3322930
-0.236326 -0.213520 1.893727 3322930
-0.238270 -0.215875 1.889483 3322930
-0.229584 -0.212613 1.886629 3322930
-0.234656 -0.201126 1.874889 3322930
-0.215100 -0.221008 1.871947 3322930
-0.218946 -0.221971 1.852872 3322930
-0.213529 -0.218166 1.839235 3322930
-0.209284 -0.225019 1.834567 3322930
-0.204453 -0.226543 1.825414 3322930
-0.214614 -0.218948 1.835467 3322930
-0.194791 -0.229591 1.807109 3322930
-0.118581 -0.082456 1.948283 3322930
-0.116150 -0.084902 1.943780 3322930
-0.125565 -0.099612 1.934327 3322930
-0.111068 -0.092229 1.924079 3322930
-0.106237 -0.093753 1.914926 3322930
-0.101406 -0.095277 1.905773 3322930
-0.102895 -0.086952 1.892162 3322930
-0.091744 -0.098325 1.887468 3322930
-0.089636 -0.096620 1.873695 3322930
-0.089907 -0.106515 1.852519 3322930
-0.077251 -0.102897 1.860010 3322930
-0.071585 -0.104038 1.836951 3322930
-0.134112 -0.087453 1.946990 3322930
-0.129281 -0.088977 1.937837 3322930
-0.114209 -0.094337 1.941531 3322930
-0.121770 -0.087802 1.922828 3322930
-0.114788 -0.093550 1.910379 3322930
-0.099962 -0.094699 1.900336 3322930
-0.105960 -0.105693 1.873286 3322930
-0.096007 -0.104559 1.874998 3322930
-0.095464 -0.099646 1.873768 3322930
-0.091471 -0.122937 1.837518 3322930
-0.085802 -0.102694 1.855463 3322930
-0.080971 -0.104218 1.846311 3322930
-0.139049 -0.083726 1.944789 3322930
-0.137831 -0.088774 1.933290 3322930
-0.133000 -0.090298 1.924137 3322930
-0.128169 -0.091822 1.914985 3322930
-0.123338 -0.093346 1.905832 3322930
-0.118507 -0.094870 1.896679 3322930
-0.113676 -0.096394 1.887527 3322930
-0.108845 -0.097918 1.878374 3322930
-0.104014 -0.099442 1.869221 3322930
-0.094597 -0.103774 1.865872 3322930
-0.094352 -0.102490 1.850916 3322930
-0.089382 -0.104430 1.836754 3322930
-0.154314 -0.099068 1.946714 3322930
-0.146382 -0.088570 1.928743 3322930
-0.143040 -0.092301 1.922095 3322930
-0.142649 -0.087897 1.897501 3322930
-0.139032 -0.127078 1.899452 3322930
-0.127058 -0.094666 1.892132 3322930
-0.116003 -0.121923 1.867189 3322930
-0.117396 -0.097714 1.873827 3322930
-0.108312 -0.117107 1.874422 3322930
-0.107734 -0.100762 1.855522 3322930
-0.102903 -0.102286 1.846369 3322930
-0.098072 -0.103810 1.837216 3322930
-0.159763 -0.086842 1.933348 3322930
-0.154932 -0.088366 1.924196 3322930
-0.150101 -0.089891 1.915043 3322930
-0.145270 -0.091415 1.905890 3322930
-0.140439 -0.092939 1.896738 3322930
-0.144132 -0.083501 1.887641 3322930
-0.130777 -0.095987 1.878432 3322930
-0.129901 -0.088088 1.866727 3322930
-0.121115 -0.099035 1.860127 3322930
-0.110280 -0.112390 1.837330 3322930
-0.111453 -0.102083 1.841822 3322930
-0.097471 -0.097295 1.840099 3322930
-0.168314 -0.086639 1.928801 3322930
-0.163483 -0.088163 1.919648 3322930
-0.158652 -0.089687 1.910496 3322930
-0.153821 -0.091211 1.901343 3322930
-0.148990 -0.092735 1.892191 3322930
-0.131199 -0.095612 1.867001 3322930
-0.147291 -0.103342 1.856024 3322930
-0.133055 -0.082555 1.864232 3322930
-0.136273 -0.110345 1.831165 3322930
-0.124835 -0.100355 1.846427 3322930
-0.120004 -0.101879 1.837275 3322930
-0.116527 -0.098927 1.818895 3322930
-0.176864 -0.086435 1.924254 3322930
-0.172033 -0.087959 1.915101 3322930
-0.161985 -0.081277 1.913620 3322930
-0.160997 -0.106642 1.895869 3322930
-0.151287 -0.087313 1.891373 3322930
-0.152709 -0.094055 1.878491 3322930
-0.147878 -0.095579 1.869338 3322930
-0.151358 -0.072333 1.872566 3322930
-0.128270 -0.108264 1.844888 3322930
-0.133385 -0.100151 1.841880 3322930
-0.124207 -0.102412 1.830761 3322930
-0.141619 -0.122981 1.813285 3322930
-0.185415 -0.086232 1.919707 3322930
-0.180897 -0.081008 1.906135 3322930
-0.174430 -0.096327 1.890040 3322930
-0.175791 -0.085305 1.890645 3322930
-0.166720 -0.092992 1.875804 3322930
-0.161260 -0.093852 1.873944 3322930
-0.156429 -0.095376 1.864791 3322930
-0.151598 -0.096900 1.855638 3322930
-0.146767 -0.098424 1.846486 3322930
-0.144129 -0.099586 1.830938 3322930
-0.122088 -0.112895 1.851451 3322930
-0.136633 -0.093394 1.823485 3322930
-0.193965 -0.086028 1.915160 3322930
-0.174882 -0.089534 1.912870 3322930
-0.192733 -0.113335 1.876554 3322930
-0.195310 -0.069896 1.883246 3322930
-0.174641 -0.092124 1.878549 3322930
-0.186682 -0.077947 1.872498 3322930
-0.156262 -0.099152 1.861642 3322930
-0.165044 -0.090665 1.858543 3322930
-0.155317 -0.098220 1.841939 3322930
-0.150486 -0.099744 1.832786 3322930
-0.145655 -0.101268 1.823633 3322930
-0.140824 -0.102792 1.814481 3322930
-0.202516 -0.085824 1.910613 3322930
-0.197685 -0.087348 1.901460 3322930
-0.193273 -0.096503 1.883209 3322930
-0.188023 -0.090396 1.883155 3322930
-0.183192 -0.091920 1.874002 3322930
-0.178361 -0.093444 1.864850 3322930
-0.166393 -0.100191 1.869699 3322930
-0.157445 -0.121267 1.839429 3322930
-0.165966 -0.103253 1.827408 3322930
-0.159037 -0.099541 1.828239 3322930
-0.146764 -0.114101 1.812991 3322930
-0.149375 -0.102589 1.809934 3322930
-0.204797 -0.090036 1.908215 3322930
-0.206235 -0.087145 1.896913 3322930
-0.216510 -0.083143 1.898393 3322930
-0.200249 -0.079702 1.873845 3322930
-0.200986 -0.064880 1.861503 3322930
-0.186911 -0.093241 1.860302 3322930
-0.181475 -0.109518 1.846944 3322930
-0.177626 -0.096678 1.832406 3322930
-0.172418 -0.097813 1.832844 3322930
-0.171253 -0.086208 1.830340 3322930
-0.162756 -0.100861 1.814539 3322930
-0.157925 -0.102385 1.805387 3322930
-0.214340 -0.085339 1.911927 3322930
-0.209122 -0.082836 1.881766 3322930
-0.211111 -0.086102 1.873144 3322930
-0.212013 -0.108162 1.878069 3322930
-0.200293 -0.091513 1.864908 3322930
-0.195462 -0.093037 1.855755 3322930
-0.188370 -0.090533 1.838823 3322930
-0.185800 -0.096085 1.837450 3322930
-0.180969 -0.097609 1.828297 3322930
-0.176138 -0.099133 1.819145 3322930
-0.170687 -0.089696 1.826570 3322930
-0.166476 -0.102181 1.800839 3322930
-0.228167 -0.085213 1.896971 3322930
-0.221259 -0.081670 1.869649 3322930
-0.221492 -0.085546 1.870912 3322930
-0.213584 -0.076151 1.869861 3322930
-0.208843 -0.091309 1.860361 3322930
-0.195687 -0.097798 1.851478 3322930
-0.195157 -0.080617 1.853137 3322930
-0.188989 -0.108208 1.842036 3322930
-0.201102 -0.110461 1.834848 3322930
-0.184688 -0.098930 1.814598 3322930
-0.171325 -0.090084 1.800246 3322930
-0.173203 -0.097892 1.797695 3322930
-0.236718 -0.085010 1.892424 3322930
-0.231887 -0.086534 1.883272 3322930
-0.227056 -0.088058 1.874119 3322930
-0.222225 -0.089582 1.864966 3322930
-0.229860 -0.085243 1.871219 3322930
-0.205875 -0.084970 1.852658 3322930
-0.207732 -0.094154 1.837508 3322930
-0.202901 -0.095678 1.828356 3322930
-0.198070 -0.097202 1.819203 3322930
-0.214628 -0.090841 1.804225 3322930
-0.188408 -0.100250 1.800898 3322930
-0.190004 -0.106515 1.779875 3322930
