# .PCD v.7 - Point Cloud Data file format
VERSION .7
FIELDS x y z rgb
SIZE 4 4 4 4
TYPE F F F U
COUNT 1 1 1 1
WIDTH 1266
HEIGHT 1
VIEWPOINT 0 0 0 1 0 0 0
POINTS 1266
DATA ascii
-0.096134 -0.122290 1.743765 14430770
-0.088709 -0.101587 1.745485 14430770
-0.090904 -0.111108 1.757659 14430770
-0.088289 -0.105517 1.764607 14430770
-0.085675 -0.099926 1.771554 14430770
-0.098038 -0.112089 1.773256 14430770
-0.080445 -0.088745 1.785449 14430770
-0.127155 -0.227036 1.627581 14430770
-0.129668 -0.200931 1.634781 14430770
-0.126560 -0.209956 1.639301 14430770
-0.153630 -0.198185 1.652830 14430770
-0.121330 -0.198774 1.653196 14430770
-0.104303 -0.172561 1.647941 14430770
-0.115796 -0.187982 1.678708 14430770
-0.127329 -0.180364 1.678998 14430770
-0.110871 -0.176410 1.680986 14430770
-0.127012 -0.170102 1.701531 14430770
-0.105641 -0.165228 1.694881 14430770
-0.114641 -0.160891 1.694451 14430770
-0.100411 -0.154047 1.708776 14430770
-0.097796 -0.148456 1.715723 14430770
-0.095181 -0.142865 1.722671 14430770
-0.092566 -0.137274 1.729618 14430770
-0.089951 -0.131683 1.736565 14430770
-0.073676 -0.134147 1.732164 14430770
-0.084722 -0.120501 1.750460 14430770
-0.082107 -0.114910 1.757408 14430770
-0.093208 -0.122480 1.768718 14430770
-0.064721 -0.094348 1.778948 14430770
-0.079368 -0.092117 1.790352 14430770
-0.085139 -0.099390 1.783193 14430770
-0.122992 -0.224940 1.625155 14430770
-0.129854 -0.219762 1.652826 14430770
-0.121300 -0.210332 1.643996 14430770
-0.109222 -0.223533 1.656359 14430770
-0.112533 -0.202576 1.652944 14430770
-0.109918 -0.196985 1.659892 14430770
-0.107303 -0.191394 1.666839 14430770
-0.104688 -0.185803 1.673787 14430770
-0.102073 -0.180212 1.680734 14430770
-0.099458 -0.174621 1.687682 14430770
-0.095676 -0.164940 1.692311 14430770
-0.094228 -0.163439 1.701577 14430770
-0.091613 -0.157849 1.708524 14430770
-0.099454 -0.160188 1.727047 14430770
-0.086384 -0.146667 1.722419 14430770
-0.083769 -0.141076 1.729366 14430770
-0.061313 -0.152441 1.742258 14430770
-0.078539 -0.129894 1.743261 14430770
-0.060333 -0.152174 1.759343 14430770
-0.073309 -0.118712 1.757156 14430770
-0.070694 -0.113121 1.764104 14430770
-0.068079 -0.107530 1.771051 14430770
-0.067949 -0.105428 1.784205 14430770
-0.062850 -0.096348 1.784946 14430770
-0.114195 -0.228741 1.624903 14430770
-0.107864 -0.224075 1.624012 14430770
-0.108965 -0.217560 1.638798 14430770
-0.116804 -0.211390 1.641945 14430770
-0.111012 -0.218707 1.656361 14430770
-0.109274 -0.203474 1.662072 14430770
-0.090321 -0.209682 1.672785 14430770
-0.103442 -0.193389 1.669482 14430770
-0.087434 -0.201030 1.681854 14430770
-0.090661 -0.178423 1.687430 14430770
-0.088046 -0.172832 1.694377 14430770
-0.091410 -0.175682 1.699806 14430770
-0.092689 -0.169903 1.722416 14430770
-0.080201 -0.156060 1.715220 14430770
-0.077586 -0.150469 1.722167 14430770
-0.087004 -0.152932 1.714394 14430770
-0.069904 -0.141652 1.741130 14430770
-0.069582 -0.127429 1.749295 14430770
-0.081607 -0.129266 1.762334 14430770
-0.064512 -0.122514 1.756905 14430770
-0.061897 -0.116923 1.763852 14430770
-0.071723 -0.106518 1.783732 14430770
-0.056667 -0.105741 1.777747 14430770
-0.054052 -0.100150 1.784694 14430770
-0.083925 -0.232166 1.639049 14430770
-0.115138 -0.236972 1.640649 14430770
-0.094068 -0.210167 1.624004 14430770
-0.097552 -0.215771 1.645494 14430770
-0.094937 -0.210180 1.652441 14430770
-0.108548 -0.210949 1.645023 14430770
-0.079231 -0.204293 1.658325 14430770
-0.102944 -0.192436 1.667079 14430770
-0.084478 -0.187816 1.680231 14430770
-0.069139 -0.190207 1.680679 14430770
-0.079248 -0.176634 1.694126 14430770
-0.075634 -0.152733 1.710652 14430770
-0.074018 -0.165452 1.708021 14430770
-0.067390 -0.153217 1.718306 14430770
-0.080779 -0.144536 1.732818 14430770
-0.066174 -0.148680 1.728863 14430770
-0.063559 -0.143089 1.735811 14430770
-0.060944 -0.137498 1.742758 14430770
-0.058329 -0.131907 1.749705 14430770
-0.055714 -0.126316 1.756653 14430770
-0.063314 -0.117009 1.765189 14430770
-0.046255 -0.109707 1.764081 14430770
-0.052341 -0.116047 1.778513 14430770
-0.050093 -0.106573 1.775098 14430770
-0.099931 -0.210190 1.600525 14430770
-0.093985 -0.230754 1.631347 14430770
-0.103476 -0.224368 1.628477 14430770
-0.088755 -0.219573 1.645242 14430770
-0.086140 -0.213982 1.652189 14430770
-0.083525 -0.208391 1.659137 14430770
-0.090886 -0.213831 1.665018 14430770
-0.078663 -0.217900 1.662539 14430770
-0.075680 -0.191618 1.679979 14430770
-0.064968 -0.201050 1.672960 14430770
-0.070451 -0.180436 1.693874 14430770
-0.062981 -0.168763 1.691725 14430770
-0.065221 -0.169254 1.707769 14430770
-0.049481 -0.170512 1.707021 14430770
-0.055376 -0.160170 1.718886 14430770
-0.057376 -0.152482 1.728611 14430770
-0.054761 -0.146891 1.735559 14430770
-0.052146 -0.141300 1.742506 14430770
-0.049531 -0.135709 1.749454 14430770
-0.056700 -0.148996 1.758800 14430770
-0.044302 -0.124527 1.763349 14430770
-0.038107 -0.104140 1.760627 14430770
-0.035066 -0.114999 1.766471 14430770
-0.038600 -0.096373 1.783992 14430770
-0.094836 -0.243960 1.628734 14430770
-0.085187 -0.234556 1.631095 14430770
-0.082572 -0.228965 1.638043 14430770
-0.088467 -0.243294 1.654420 14430770
-0.077342 -0.217784 1.651938 14430770
-0.087989 -0.224527 1.656806 14430770
-0.072113 -0.206602 1.665833 14430770
-0.069498 -0.201011 1.672780 14430770
-0.066883 -0.195420 1.679728 14430770
-0.079352 -0.182297 1.661463 14430770
-0.062283 -0.187529 1.692608 14430770
-0.059038 -0.178647 1.700570 14430770
-0.048518 -0.168942 1.707555 14430770
-0.043861 -0.168264 1.706836 14430770
-0.051193 -0.161874 1.721412 14430770
-0.048579 -0.156284 1.728360 14430770
-0.038046 -0.154502 1.724854 14430770
-0.055883 -0.138134 1.745096 14430770
-0.063504 -0.146712 1.757607 14430770
-0.038119 -0.133920 1.756150 14430770
-0.033571 -0.123205 1.755971 14430770
-0.032889 -0.122738 1.770044 14430770
-0.030274 -0.117147 1.776992 14430770
-0.036598 -0.116899 1.800085 14430770
-0.084576 -0.234865 1.622967 14430770
-0.076389 -0.238358 1.630844 14430770
-0.073775 -0.232767 1.637791 14430770
-0.069320 -0.226942 1.628637 14430770
-0.068545 -0.221586 1.651686 14430770
-0.065930 -0.215995 1.658634 14430770
-0.063132 -0.207060 1.669972 14430770
-0.060700 -0.204813 1.672529 14430770
-0.078686 -0.213153 1.686440 14430770
-0.055470 -0.193631 1.686423 14430770
-0.041316 -0.177569 1.680304 14430770
-0.050241 -0.182449 1.700318 14430770
-0.062726 -0.166858 1.691029 14430770
-0.036416 -0.174014 1.726730 14430770
-0.059677 -0.162085 1.739812 14430770
-0.039781 -0.160085 1.728108 14430770
-0.037166 -0.154495 1.735056 14430770
-0.034551 -0.148904 1.742003 14430770
-0.025206 -0.142775 1.754886 14430770
-0.029321 -0.137722 1.755898 14430770
-0.032628 -0.132245 1.762814 14430770
-0.024092 -0.126540 1.769793 14430770
-0.021477 -0.120949 1.776740 14430770
-0.018862 -0.115358 1.783688 14430770
-0.256668 -0.044461 1.530229 14430770
-0.254053 -0.038870 1.537176 14430770
-0.251438 -0.033279 1.544124 14430770
-0.248823 -0.027688 1.551071 14430770
-0.246208 -0.022097 1.558019 14430770
-0.243594 -0.016506 1.564966 14430770
-0.240979 -0.010915 1.571913 14430770
-0.250600 -0.004612 1.566362 14430770
-0.235749 0.000266 1.585808 14430770
-0.247301 0.009847 1.598170 14430770
-0.213994 0.004242 1.593005 14430770
-0.227904 0.017039 1.606651 14430770
-0.225289 0.022630 1.613598 14430770
-0.216210 0.032785 1.622227 14430770
-0.220060 0.033812 1.627493 14430770
-0.217445 0.039403 1.634441 14430770
-0.209007 0.036096 1.651205 14430770
-0.202790 0.054187 1.667387 14430770
-0.209600 0.056175 1.655283 14430770
-0.215675 0.064019 1.666914 14430770
-0.204370 0.067357 1.669178 14430770
-0.199948 0.054406 1.680871 14430770
-0.208793 0.066904 1.673129 14430770
-0.196526 0.084130 1.690020 14430770
-0.244153 -0.044331 1.542824 14430770
-0.245256 -0.042672 1.536925 14430770
-0.232420 -0.038454 1.566466 14430770
-0.235379 -0.033889 1.552875 14430770
-0.237411 -0.025899 1.557767 14430770
-0.234796 -0.020308 1.564714 14430770
-0.232181 -0.014717 1.571662 14430770
-0.229566 -0.009127 1.578609 14430770
-0.226951 -0.003536 1.585557 14430770
-0.237761 0.005396 1.601823 14430770
-0.221722 0.007646 1.599452 14430770
-0.219107 0.013237 1.606399 14430770
-0.234119 0.030587 1.629441 14430770
-0.213877 0.024419 1.620294 14430770
-0.213184 0.029874 1.621620 14430770
-0.208647 0.035601 1.634189 14430770
-0.216186 0.025501 1.639446 14430770
-0.203417 0.046783 1.648084 14430770
-0.200802 0.052374 1.655031 14430770
-0.210485 0.061763 1.650141 14430770
-0.196201 0.063293 1.675912 14430770
-0.192958 0.069146 1.675874 14430770
-0.196223 0.083025 1.673039 14430770
-0.189660 0.067360 1.658977 14430770
-0.246302 -0.049564 1.506090 14430770
-0.236458 -0.046474 1.536673 14430770
-0.233843 -0.040883 1.543620 14430770
-0.231228 -0.035292 1.550568 14430770
-0.228943 -0.027706 1.577721 14430770
-0.213775 -0.028508 1.544523 14430770
-0.215529 -0.019366 1.589743 14430770
-0.228662 -0.017966 1.602367 14430770
-0.196809 0.003423 1.570884 14430770
-0.215539 -0.001747 1.592253 14430770
-0.212924 0.003844 1.599200 14430770
-0.210309 0.009435 1.606147 14430770
-0.207694 0.015026 1.613095 14430770
-0.202758 0.031342 1.628548 14430770
-0.202464 0.026208 1.626990 14430770
-0.199850 0.031799 1.633937 14430770
-0.197235 0.037390 1.640885 14430770
-0.194620 0.042981 1.647832 14430770
-0.180081 0.056733 1.658350 14430770
-0.204693 0.059555 1.669610 14430770
-0.188430 0.038538 1.663834 14430770
-0.184160 0.065344 1.675622 14430770
-0.178114 0.078537 1.686815 14430770
-0.178930 0.076526 1.689517 14430770
-0.237744 -0.070434 1.517557 14430770
-0.222461 -0.067837 1.529496 14430770
-0.233494 -0.052474 1.547642 14430770
-0.235989 -0.045257 1.559332 14430770
-0.203969 -0.032518 1.561890 14430770
-0.217201 -0.027912 1.564211 14430770
-0.206065 -0.028009 1.573708 14430770
-0.211971 -0.016730 1.578106 14430770
-0.209356 -0.011139 1.585053 14430770
-0.206741 -0.005549 1.592001 14430770
-0.175612 0.006134 1.602592 14430770
-0.187636 -0.007074 1.610271 14430770
-0.198897 0.011224 1.612843 14430770
-0.194462 0.014564 1.604237 14430770
-0.193667 0.022406 1.626738 14430770
-0.200725 0.036943 1.641632 14430770
-0.187259 0.030666 1.641788 14430770
-0.193595 0.042705 1.644715 14430770
-0.185247 0.034402 1.669356 14430770
-0.180592 0.050361 1.661475 14430770
-0.173803 0.057755 1.669343 14430770
-0.175363 0.061542 1.675370 14430770
-0.172748 0.067133 1.682318 14430770
-0.183942 0.082499 1.682870 14430770
-0.225540 -0.061415 1.538521 14430770
-0.218863 -0.054078 1.536170 14430770
-0.216248 -0.048487 1.543117 14430770
-0.213633 -0.042896 1.550064 14430770
-0.221516 -0.012593 1.569146 14430770
-0.198993 -0.016775 1.560696 14430770
-0.205788 -0.026123 1.570907 14430770
-0.203174 -0.020532 1.577854 14430770
-0.201286 -0.028686 1.571292 14430770
-0.211401 -0.002595 1.579856 14430770
-0.195329 -0.003760 1.598697 14430770
-0.192714 0.001831 1.605644 14430770
-0.204566 -0.013486 1.609598 14430770
-0.183226 0.005558 1.638156 14430770
-0.174525 0.004263 1.633608 14430770
-0.182254 0.024195 1.633434 14430770
-0.170265 0.036245 1.634763 14430770
-0.175828 0.030761 1.643544 14430770
-0.174410 0.040968 1.654276 14430770
-0.171795 0.046559 1.661224 14430770
-0.169180 0.052150 1.668171 14430770
-0.166565 0.057740 1.675119 14430770
-0.143002 0.063589 1.669548 14430770
-0.161335 0.068922 1.689014 14430770
-0.210193 -0.047335 1.532027 14430770
-0.210065 -0.057880 1.535918 14430770
-0.207795 -0.061476 1.563927 14430770
-0.174433 -0.032766 1.550834 14430770
-0.217863 -0.039093 1.543587 14430770
-0.199606 -0.035516 1.563708 14430770
-0.196991 -0.029925 1.570655 14430770
-0.194376 -0.024334 1.577603 14430770
-0.200053 -0.020608 1.578601 14430770
-0.186537 -0.013178 1.595393 14430770
-0.186531 -0.007562 1.598445 14430770
-0.182410 0.014176 1.612320 14430770
-0.178393 0.000315 1.604985 14430770
-0.168229 -0.006606 1.626108 14430770
-0.181428 0.002152 1.618732 14430770
-0.181825 0.018172 1.658428 14430770
-0.170842 0.025984 1.640130 14430770
-0.178512 0.023064 1.658073 14430770
-0.165612 0.037166 1.654025 14430770
-0.162997 0.042757 1.660972 14430770
-0.160382 0.048348 1.667920 14430770
-0.157768 0.053939 1.674867 14430770
-0.155153 0.059529 1.681814 14430770
-0.169207 0.070878 1.686149 14430770
-0.212689 -0.057014 1.530098 14430770
-0.200933 -0.049991 1.521692 14430770
-0.197792 -0.048337 1.538769 14430770
-0.196038 -0.050500 1.549561 14430770
-0.197161 -0.031147 1.574232 14430770
-0.207635 -0.037869 1.571838 14430770
-0.188193 -0.033727 1.570404 14430770
-0.182569 -0.033327 1.591504 14430770
-0.182964 -0.022545 1.584298 14430770
-0.185786 -0.014082 1.579009 14430770
-0.177734 -0.011363 1.598193 14430770
-0.186183 -0.006196 1.597324 14430770
-0.175149 -0.007404 1.613119 14430770
-0.174144 0.004503 1.618906 14430770
-0.156785 0.020939 1.620581 14430770
-0.156011 0.015833 1.637449 14430770
-0.162044 0.022182 1.639878 14430770
-0.159430 0.027773 1.646826 14430770
-0.156815 0.033364 1.653773 14430770
-0.154200 0.038955 1.660720 14430770
-0.131851 0.040215 1.678823 14430770
-0.148970 0.050137 1.674615 14430770
-0.137962 0.056490 1.672105 14430770
-0.143740 0.061318 1.688510 14430770
-0.213612 -0.050947 1.541357 14430770
-0.172956 -0.067130 1.535723 14430770
-0.189855 -0.059893 1.542362 14430770
-0.187240 -0.054302 1.549310 14430770
-0.184626 -0.048711 1.556257 14430770
-0.181313 -0.056821 1.563750 14430770
-0.179396 -0.037529 1.570152 14430770
-0.176781 -0.031938 1.577099 14430770
-0.163031 -0.011656 1.572977 14430770
-0.154991 0.001932 1.592491 14430770
-0.168936 -0.015165 1.597942 14430770
-0.166321 -0.009574 1.604889 14430770
-0.163706 -0.003984 1.611837 14430770
-0.153147 0.001568 1.624376 14430770
-0.158477 0.007198 1.625732 14430770
-0.155862 0.012789 1.632679 14430770
-0.154162 0.005439 1.643014 14430770
-0.150632 0.023971 1.646574 14430770
-0.158985 0.020112 1.648624 14430770
-0.145402 0.035153 1.660469 14430770
-0.137147 0.038638 1.674040 14430770
-0.140172 0.046335 1.674364 14430770
-0.137558 0.051926 1.681311 14430770
-0.134673 0.057851 1.690189 14430770
-0.186288 -0.074876 1.528216 14430770
-0.183673 -0.069286 1.535163 14430770
-0.181058 -0.063695 1.542110 14430770
-0.178443 -0.058104 1.549058 14430770
-0.182621 -0.048796 1.549761 14430770
-0.173213 -0.046922 1.562953 14430770
-0.186600 -0.041887 1.566942 14430770
-0.167983 -0.035740 1.576848 14430770
-0.165368 -0.030149 1.583795 14430770
-0.149082 -0.035406 1.600833 14430770
-0.141594 0.000115 1.602803 14430770
-0.157524 -0.013376 1.604638 14430770
-0.166614 -0.010874 1.617849 14430770
-0.137257 -0.018657 1.616288 14430770
-0.149679 0.003396 1.625480 14430770
-0.164882 -0.000310 1.632416 14430770
-0.146621 -0.000446 1.646703 14430770
-0.141834 0.020169 1.646322 14430770
-0.139220 0.025760 1.653270 14430770
-0.136605 0.031351 1.660217 14430770
-0.133990 0.036942 1.667165 14430770
-0.137854 0.035630 1.662970 14430770
-0.128760 0.048124 1.681059 14430770
-0.126145 0.053715 1.688007 14430770
-0.177955 -0.078277 1.529906 14430770
-0.166224 -0.069631 1.544988 14430770
-0.161119 -0.082110 1.550126 14430770
-0.169645 -0.061906 1.548806 14430770
-0.167030 -0.056315 1.555754 14430770
-0.164416 -0.050724 1.562701 14430770
-0.148163 -0.050824 1.600950 14430770
-0.164758 -0.040951 1.578036 14430770
-0.150840 -0.030593 1.599207 14430770
-0.136036 -0.028872 1.560696 14430770
-0.149497 -0.014514 1.615329 14430770
-0.136493 -0.022490 1.627735 14430770
-0.155089 -0.010269 1.600071 14430770
-0.143496 -0.005997 1.618281 14430770
-0.130270 -0.015386 1.624350 14430770
-0.135500 0.016413 1.633096 14430770
-0.124930 0.000301 1.632465 14430770
-0.133037 0.016367 1.646071 14430770
-0.130422 0.021958 1.653018 14430770
-0.127807 0.027549 1.659965 14430770
-0.125192 0.033140 1.666913 14430770
-0.122577 0.038731 1.673860 14430770
-0.117455 0.044446 1.690419 14430770
-0.142174 0.044012 1.698059 14430770
-0.181517 -0.085741 1.527429 14430770
-0.170023 -0.074328 1.539754 14430770
-0.163463 -0.071298 1.541607 14430770
-0.160848 -0.065708 1.548555 14430770
-0.158233 -0.060117 1.555502 14430770
-0.155618 -0.054526 1.562450 14430770
-0.151549 -0.055888 1.561951 14430770
-0.150388 -0.043344 1.576344 14430770
-0.159339 -0.034931 1.574797 14430770
-0.148774 -0.040958 1.595094 14430770
-0.142544 -0.026571 1.597187 14430770
-0.139929 -0.020980 1.604134 14430770
-0.123762 -0.012794 1.601502 14430770
-0.134699 -0.009798 1.618029 14430770
-0.128964 -0.012634 1.629821 14430770
-0.129469 0.001383 1.631924 14430770
-0.119375 -0.010631 1.654700 14430770
-0.117101 0.022816 1.650668 14430770
-0.121624 0.018156 1.652766 14430770
-0.123752 0.021789 1.669762 14430770
-0.116395 0.029338 1.666661 14430770
-0.114097 0.042836 1.686848 14430770
-0.112620 0.036720 1.671428 14430770
-0.107693 0.049424 1.700906 14430770
-0.153048 -0.083463 1.526398 14430770
-0.157280 -0.080691 1.534408 14430770
-0.154665 -0.075100 1.541356 14430770
-0.152050 -0.069510 1.548303 14430770
-0.151154 -0.076802 1.557226 14430770
-0.146820 -0.058328 1.562198 14430770
-0.150635 -0.060149 1.563843 14430770
-0.132005 -0.044880 1.579979 14430770
-0.144402 -0.044111 1.569436 14430770
-0.131292 -0.033555 1.551947 14430770
-0.133746 -0.030373 1.596935 14430770
-0.152739 -0.030930 1.609824 14430770
-0.128516 -0.019191 1.610830 14430770
-0.125901 -0.013600 1.617777 14430770
-0.118601 0.002919 1.619341 14430770
-0.120672 -0.002419 1.631672 14430770
-0.118057 0.003172 1.638620 14430770
-0.115442 0.008763 1.645567 14430770
-0.112827 0.014354 1.652515 14430770
-0.127181 0.022647 1.661580 14430770
-0.107597 0.025536 1.666410 14430770
-0.110711 0.034206 1.683049 14430770
-0.102367 0.036718 1.680305 14430770
-0.098992 0.029962 1.708724 14430770
-0.151097 -0.090084 1.527209 14430770
-0.148482 -0.084493 1.534156 14430770
-0.145090 -0.100983 1.540036 14430770
-0.143253 -0.073311 1.548051 14430770
-0.140638 -0.067721 1.554999 14430770
-0.135595 -0.074159 1.555207 14430770
-0.135408 -0.056539 1.568894 14430770
-0.126573 -0.047861 1.581877 14430770
-0.130178 -0.045357 1.582789 14430770
-0.127563 -0.039766 1.589736 14430770
-0.114271 -0.045457 1.586806 14430770
-0.115679 -0.042073 1.623303 14430770
-0.119719 -0.022993 1.610578 14430770
-0.117104 -0.017402 1.617526 14430770
-0.121817 -0.011075 1.612397 14430770
-0.111874 -0.006220 1.631421 14430770
-0.111129 0.001048 1.657242 14430770
-0.106644 0.004961 1.645316 14430770
-0.104029 0.010552 1.652263 14430770
-0.101414 0.016143 1.659211 14430770
-0.098800 0.021734 1.666158 14430770
-0.087507 0.031901 1.673210 14430770
-0.098672 0.029409 1.695138 14430770
-0.094945 0.055682 1.689794 14430770
-0.144393 -0.092630 1.510368 14430770
-0.162564 -0.092593 1.526907 14430770
-0.137070 -0.082704 1.540852 14430770
-0.134455 -0.077113 1.547800 14430770
-0.130246 -0.079329 1.558476 14430770
-0.129225 -0.065932 1.561695 14430770
-0.137564 -0.056801 1.549814 14430770
-0.114877 -0.037186 1.572967 14430770
-0.132761 -0.059538 1.582812 14430770
-0.118766 -0.043568 1.589484 14430770
-0.116151 -0.037977 1.596432 14430770
-0.102088 -0.045539 1.607321 14430770
-0.087331 -0.027660 1.606448 14430770
-0.105341 -0.022781 1.613254 14430770
-0.105691 -0.015613 1.624222 14430770
-0.091784 -0.012184 1.638268 14430770
-0.096671 -0.032804 1.627643 14430770
-0.097847 0.001159 1.645064 14430770
-0.100160 0.016132 1.649512 14430770
-0.092617 0.012341 1.658959 14430770
-0.090002 0.017932 1.665906 14430770
-0.089039 0.015915 1.676624 14430770
-0.084772 0.029114 1.679801 14430770
-0.078737 0.034855 1.684165 14430770
-0.133502 -0.097688 1.526706 14430770
-0.123656 -0.110119 1.522673 14430770
-0.128272 -0.086506 1.540601 14430770
-0.125658 -0.080915 1.547548 14430770
-0.121128 -0.088208 1.545333 14430770
-0.120428 -0.069734 1.561443 14430770
-0.117813 -0.064143 1.568390 14430770
-0.117743 -0.065288 1.593834 14430770
-0.112583 -0.052961 1.582285 14430770
-0.091922 -0.056910 1.601248 14430770
-0.107353 -0.041779 1.596180 14430770
-0.104738 -0.036188 1.603128 14430770
-0.102124 -0.030597 1.610075 14430770
-0.099509 -0.025006 1.617023 14430770
-0.096894 -0.019415 1.623970 14430770
-0.094279 -0.013824 1.630917 14430770
-0.091664 -0.008233 1.637865 14430770
-0.089491 -0.001509 1.659059 14430770
-0.086434 0.002948 1.651760 14430770
-0.083819 0.008539 1.658707 14430770
-0.075845 0.017160 1.668063 14430770
-0.078590 0.019721 1.672602 14430770
-0.075975 0.025312 1.679550 14430770
-0.073360 0.030903 1.686497 14430770
-0.135436 -0.103386 1.526519 14430770
-0.130678 -0.101733 1.514115 14430770
-0.128162 -0.089977 1.536128 14430770
-0.118070 -0.077041 1.551476 14430770
-0.113406 -0.081173 1.558105 14430770
-0.092288 -0.066698 1.567323 14430770
-0.109015 -0.067945 1.568139 14430770
-0.102383 -0.066883 1.564995 14430770
-0.096084 -0.058038 1.581468 14430770
-0.103687 -0.047424 1.614982 14430770
-0.091439 -0.040507 1.586061 14430770
-0.095941 -0.039990 1.602876 14430770
-0.093326 -0.034399 1.609823 14430770
-0.094136 -0.034116 1.613571 14430770
-0.081703 -0.019112 1.619203 14430770
-0.080555 -0.003950 1.643792 14430770
-0.082866 -0.012035 1.637613 14430770
-0.080252 -0.006444 1.644561 14430770
-0.077637 -0.000854 1.651508 14430770
-0.068317 0.010724 1.656716 14430770
-0.072407 0.010328 1.665403 14430770
-0.061202 0.004184 1.654327 14430770
-0.067177 0.021510 1.679298 14430770
-0.071701 0.031385 1.678738 14430770
-0.115907 -0.105292 1.526202 14430770
-0.093451 -0.089631 1.530792 14430770
-0.110677 -0.094110 1.540097 14430770
-0.094427 -0.074949 1.554770 14430770
-0.104359 -0.085402 1.548571 14430770
-0.101636 -0.080053 1.561095 14430770
-0.100218 -0.071746 1.567887 14430770
-0.097603 -0.066156 1.574835 14430770
-0.095407 -0.070077 1.577458 14430770
-0.092373 -0.054974 1.588729 14430770
-0.102036 -0.059499 1.592291 14430770
-0.083428 -0.049449 1.594388 14430770
-0.084528 -0.038201 1.609572 14430770
-0.101012 -0.029215 1.641723 14430770
-0.082463 -0.023311 1.618200 14430770
-0.072970 -0.003176 1.650359 14430770
-0.055304 -0.011560 1.628714 14430770
-0.071454 -0.010246 1.644309 14430770
-0.068839 -0.004655 1.651256 14430770
-0.066224 0.000935 1.658204 14430770
-0.068097 0.011997 1.670258 14430770
-0.054131 0.005548 1.686519 14430770
-0.058380 0.017708 1.679046 14430770
-0.048461 0.019726 1.691790 14430770
-0.107110 -0.109094 1.525951 14430770
-0.104495 -0.103503 1.532898 14430770
-0.103219 -0.099951 1.534502 14430770
-0.099265 -0.092321 1.546793 14430770
-0.092548 -0.071307 1.536235 14430770
-0.094035 -0.081139 1.560688 14430770
-0.081894 -0.091678 1.583665 14430770
-0.066792 -0.074342 1.575200 14430770
-0.081205 -0.071958 1.574474 14430770
-0.083576 -0.058776 1.588478 14430770
-0.080961 -0.053185 1.595425 14430770
-0.086029 -0.051430 1.608638 14430770
-0.058786 -0.036510 1.613654 14430770
-0.073116 -0.036412 1.616268 14430770
-0.042813 -0.021703 1.620624 14430770
-0.069122 -0.018266 1.637230 14430770
-0.060056 -0.035206 1.636682 14430770
-0.062656 -0.014048 1.644057 14430770
-0.060042 -0.008457 1.651005 14430770
-0.044934 -0.000673 1.662383 14430770
-0.054812 0.002724 1.664900 14430770
-0.048893 0.001537 1.678442 14430770
-0.042381 0.018638 1.664445 14430770
-0.048736 0.018426 1.695174 14430770
-0.098312 -0.112896 1.525699 14430770
-0.095697 -0.107305 1.532647 14430770
-0.076057 -0.105510 1.540789 14430770
-0.090467 -0.096123 1.546541 14430770
-0.087852 -0.090532 1.553489 14430770
-0.077646 -0.104423 1.538856 14430770
-0.082623 -0.079350 1.567384 14430770
-0.080008 -0.073759 1.574331 14430770
-0.077393 -0.068169 1.581279 14430770
-0.068422 -0.069585 1.584874 14430770
-0.087908 -0.047542 1.592144 14430770
-0.069548 -0.051396 1.602121 14430770
-0.066933 -0.045805 1.609068 14430770
-0.064318 -0.040214 1.616016 14430770
-0.061704 -0.034623 1.622963 14430770
-0.059089 -0.029032 1.629911 14430770
-0.057115 -0.037776 1.647874 14430770
-0.049605 -0.016070 1.621681 14430770
-0.051244 -0.012259 1.650753 14430770
-0.048629 -0.006668 1.657701 14430770
-0.039143 -0.000154 1.674348 14430770
-0.043266 -0.003310 1.682644 14430770
-0.040784 0.010104 1.678543 14430770
-0.051178 0.011689 1.684007 14430770
-0.088519 -0.132935 1.514586 14430770
-0.086900 -0.111107 1.532395 14430770
-0.084033 -0.108068 1.544303 14430770
-0.082647 -0.086856 1.544899 14430770
-0.069363 -0.078736 1.539472 14430770
-0.073042 -0.086119 1.552506 14430770
-0.073825 -0.083152 1.567132 14430770
-0.071210 -0.077561 1.574080 14430770
-0.068595 -0.071970 1.581027 14430770
-0.057707 -0.060822 1.590993 14430770
-0.058643 -0.068611 1.585778 14430770
-0.031600 -0.065504 1.600308 14430770
-0.073024 -0.056641 1.619060 14430770
-0.055521 -0.044016 1.615764 14430770
-0.053489 -0.052639 1.629716 14430770
-0.062729 -0.031541 1.623801 14430770
-0.047676 -0.027243 1.636607 14430770
-0.044537 -0.021000 1.657161 14430770
-0.042446 -0.016061 1.650502 14430770
-0.059769 -0.006413 1.656913 14430770
-0.037217 -0.004879 1.664396 14430770
-0.034602 0.000711 1.671344 14430770
-0.024930 0.007643 1.680166 14430770
-0.038282 0.009814 1.694736 14430770
-0.082862 -0.113178 1.528708 14430770
-0.093726 -0.118957 1.516085 14430770
-0.075487 -0.109318 1.539091 14430770
-0.056528 -0.089318 1.567695 14430770
-0.070257 -0.098136 1.552986 14430770
-0.076916 -0.094444 1.563049 14430770
-0.065028 -0.086954 1.566880 14430770
-0.066216 -0.068744 1.558425 14430770
-0.039974 -0.072674 1.579999 14430770
-0.071983 -0.085576 1.603529 14430770
-0.054568 -0.064591 1.594670 14430770
-0.051953 -0.059000 1.601618 14430770
-0.051329 -0.060042 1.617684 14430770
-0.046723 -0.047818 1.615513 14430770
-0.044108 -0.042227 1.622460 14430770
-0.041494 -0.036636 1.629408 14430770
-0.038879 -0.031045 1.636355 14430770
-0.036264 -0.025454 1.643302 14430770
-0.033649 -0.019863 1.650250 14430770
-0.020660 -0.015990 1.661878 14430770
-0.031093 -0.013875 1.665866 14430770
-0.026077 0.007225 1.691800 14430770
-0.023189 0.002500 1.678040 14430770
-0.020574 0.008091 1.684987 14430770
-0.071919 -0.124302 1.524944 14430770
-0.055639 -0.128649 1.523649 14430770
-0.066690 -0.113120 1.538839 14430770
-0.064075 -0.107529 1.545786 14430770
-0.061460 -0.101938 1.552734 14430770
-0.051605 -0.099192 1.571061 14430770
-0.056230 -0.090756 1.566629 14430770
-0.053615 -0.085165 1.573576 14430770
-0.046766 -0.080514 1.591095 14430770
-0.049232 -0.071209 1.592829 14430770
-0.054696 -0.072928 1.596225 14430770
-0.033311 -0.058958 1.606076 14430770
-0.032294 -0.068406 1.627075 14430770
-0.033585 -0.037620 1.621502 14430770
-0.020053 -0.052140 1.624190 14430770
-0.032696 -0.040438 1.629156 14430770
-0.029155 -0.032643 1.628615 14430770
-0.031341 -0.020540 1.647103 14430770
-0.024851 -0.023665 1.649998 14430770
-0.022236 -0.018074 1.656946 14430770
-0.021563 -0.016541 1.664357 14430770
0.010587 -0.013904 1.664733 14430770
-0.026501 -0.005183 1.667539 14430770
-0.011777 0.004289 1.684736 14430770
-0.066718 -0.133313 1.520183 14430770
-0.051002 -0.135978 1.515721 14430770
-0.072550 -0.094906 1.542259 14430770
-0.053228 -0.135891 1.552384 14430770
-0.052662 -0.105740 1.552482 14430770
-0.050047 -0.100149 1.559430 14430770
-0.036074 -0.110336 1.544158 14430770
-0.044818 -0.088967 1.573325 14430770
-0.046603 -0.081442 1.586914 14430770
-0.055713 -0.070124 1.584327 14430770
-0.038753 -0.062097 1.604856 14430770
-0.034358 -0.066604 1.601114 14430770
-0.031743 -0.061013 1.608062 14430770
-0.029128 -0.055422 1.615009 14430770
-0.026513 -0.049831 1.621957 14430770
-0.023898 -0.044240 1.628904 14430770
-0.021284 -0.038649 1.635852 14430770
-0.022712 -0.033834 1.655501 14430770
-0.019808 -0.022664 1.659994 14430770
-0.020987 -0.018830 1.655061 14430770
-0.016942 -0.029394 1.687550 14430770
-0.008209 -0.010694 1.670589 14430770
-0.005784 -0.004708 1.706336 14430770
0.009881 -0.002391 1.690789 14430770
-0.054324 -0.131905 1.524441 14430770
-0.051709 -0.126315 1.531388 14430770
-0.049094 -0.120724 1.538336 14430770
-0.037171 -0.102022 1.546574 14430770
-0.034888 -0.117542 1.556304 14430770
-0.037434 -0.108997 1.566669 14430770
-0.038635 -0.098360 1.566126 14430770
-0.036020 -0.092769 1.573073 14430770
-0.029632 -0.093776 1.560572 14430770
-0.030790 -0.081587 1.586968 14430770
-0.028175 -0.075996 1.593915 14430770
-0.025560 -0.070405 1.600863 14430770
-0.026493 -0.068770 1.615905 14430770
-0.020331 -0.059224 1.614758 14430770
-0.017716 -0.053633 1.621705 14430770
-0.015101 -0.048042 1.628653 14430770
-0.006093 -0.042000 1.653594 14430770
-0.009871 -0.036860 1.642548 14430770
-0.007256 -0.031269 1.649495 14430770
-0.004641 -0.025678 1.656442 14430770
-0.011124 -0.030003 1.660744 14430770
0.000588 -0.014496 1.670337 14430770
0.005695 -0.013249 1.677687 14430770
0.000729 0.006102 1.669231 14430770
-0.062612 -0.138866 1.531935 14430770
-0.042912 -0.130117 1.531137 14430770
-0.040297 -0.124526 1.538084 14430770
-0.019573 -0.112679 1.529032 14430770
-0.035067 -0.113344 1.551979 14430770
-0.018101 -0.120933 1.558002 14430770
-0.028357 -0.108586 1.568747 14430770
-0.012382 -0.095171 1.573338 14430770
-0.024608 -0.090980 1.579769 14430770
-0.018731 -0.096713 1.582066 14430770
-0.003131 -0.077895 1.586403 14430770
-0.025247 -0.078728 1.603816 14430770
-0.015529 -0.072018 1.610949 14430770
-0.011533 -0.063026 1.614506 14430770
-0.012760 -0.055845 1.621628 14430770
-0.010921 -0.051542 1.615294 14430770
-0.003688 -0.046253 1.635348 14430770
-0.001074 -0.040662 1.642296 14430770
0.005065 -0.026817 1.648109 14430770
0.011418 -0.034006 1.663612 14430770
0.003626 -0.016051 1.652302 14430770
0.009386 -0.018298 1.670086 14430770
0.016962 -0.013072 1.672679 14430770
0.014616 -0.007116 1.683981 14430770
-0.036729 -0.139509 1.523938 14430770
-0.034114 -0.133918 1.530885 14430770
-0.020380 -0.124944 1.527070 14430770
-0.036961 -0.125491 1.556196 14430770
-0.016019 -0.128178 1.539412 14430770
-0.031802 -0.103164 1.548159 14430770
-0.029549 -0.111768 1.567041 14430770
-0.018425 -0.100373 1.572570 14430770
-0.015810 -0.094782 1.579517 14430770
-0.013195 -0.089191 1.586465 14430770
-0.010580 -0.083600 1.593412 14430770
-0.019674 -0.066611 1.602686 14430770
-0.005350 -0.072418 1.607307 14430770
0.012960 -0.061763 1.639459 14430770
-0.000121 -0.061237 1.621202 14430770
0.002494 -0.055646 1.628149 14430770
0.005109 -0.050055 1.635097 14430770
0.018694 -0.048199 1.656523 14430770
0.010339 -0.038873 1.648992 14430770
0.016953 -0.035968 1.652904 14430770
0.015569 -0.027691 1.662887 14430770
0.018184 -0.022100 1.669834 14430770
0.019366 -0.018994 1.662470 14430770
0.023413 -0.010918 1.683729 14430770
-0.036729 -0.139509 1.523938 14430770
-0.034114 -0.133918 1.530885 14430770
-0.022299 -0.139429 1.512938 14430770
-0.021908 -0.126351 1.541382 14430770
-0.034153 -0.106334 1.553166 14430770
-0.023655 -0.111555 1.558675 14430770
-0.040593 -0.108230 1.573315 14430770
-0.007793 -0.110218 1.572135 14430770
-0.015810 -0.094782 1.579517 14430770
-0.013195 -0.089191 1.586465 14430770
-0.012011 -0.087588 1.586288 14430770
-0.007965 -0.078009 1.600359 14430770
-0.005350 -0.072418 1.607307 14430770
-0.010621 -0.050203 1.606762 14430770
-0.009339 -0.070721 1.620001 14430770
0.002717 -0.058352 1.622331 14430770
0.006389 -0.033468 1.620021 14430770
0.007724 -0.044464 1.642044 14430770
0.010339 -0.038873 1.648992 14430770
0.018766 -0.031631 1.663331 14430770
0.015569 -0.027691 1.662887 14430770
0.018184 -0.022100 1.669834 14430770
0.027527 -0.014543 1.705932 14430770
0.023413 -0.010918 1.683729 14430770
-0.039547 -0.146472 1.530601 14430770
-0.036933 -0.140881 1.537549 14430770
-0.019408 -0.133900 1.548194 14430770
-0.040076 -0.117288 1.547584 14430770
-0.029088 -0.124108 1.558391 14430770
-0.026473 -0.118517 1.565339 14430770
-0.041517 -0.112940 1.566733 14430770
-0.021243 -0.107336 1.579234 14430770
-0.015223 -0.098367 1.597303 14430770
-0.016013 -0.096154 1.593129 14430770
-0.013482 -0.085110 1.597306 14430770
-0.010784 -0.084972 1.607023 14430770
-0.015397 -0.076791 1.593750 14430770
-0.010567 -0.073779 1.604667 14430770
-0.006023 -0.060693 1.650452 14430770
-0.000324 -0.062608 1.634813 14430770
-0.002881 -0.054211 1.631749 14430770
0.004906 -0.051426 1.648708 14430770
0.007521 -0.045836 1.655656 14430770
0.010135 -0.040245 1.662603 14430770
0.012750 -0.034654 1.669550 14430770
0.015365 -0.029063 1.676498 14430770
0.010627 -0.003175 1.687081 14430770
0.020362 -0.009667 1.696182 14430770
-0.042366 -0.153435 1.537265 14430770
-0.052849 -0.150667 1.538225 14430770
-0.037136 -0.142253 1.551160 14430770
-0.034521 -0.136662 1.558108 14430770
-0.027810 -0.132341 1.563576 14430770
-0.029291 -0.125480 1.572003 14430770
-0.040526 -0.123954 1.584980 14430770
-0.024062 -0.114298 1.585898 14430770
-0.026563 -0.111612 1.591925 14430770
-0.018832 -0.103116 1.599792 14430770
-0.016217 -0.097526 1.606740 14430770
-0.013602 -0.091935 1.613687 14430770
-0.010987 -0.086344 1.620635 14430770
-0.008372 -0.080753 1.627582 14430770
-0.010187 -0.060990 1.618432 14430770
-0.003142 -0.069571 1.641477 14430770
-0.000528 -0.063980 1.648425 14430770
0.004749 -0.050540 1.648885 14430770
0.005846 -0.053608 1.659262 14430770
0.006743 -0.057726 1.647684 14430770
0.009932 -0.041616 1.676214 14430770
0.022055 -0.043205 1.671064 14430770
0.003683 -0.034306 1.682962 14430770
0.017777 -0.024844 1.697057 14430770
-0.045184 -0.160397 1.543929 14430770
-0.042569 -0.154806 1.550877 14430770
-0.039954 -0.149216 1.557824 14430770
-0.037339 -0.143625 1.564772 14430770
-0.034725 -0.138034 1.571719 14430770
-0.032110 -0.132443 1.578667 14430770
-0.012331 -0.132668 1.590502 14430770
-0.026880 -0.121261 1.592561 14430770
-0.024265 -0.115670 1.599509 14430770
-0.010435 -0.108314 1.609690 14430770
-0.014772 -0.089735 1.636541 14430770
-0.011403 -0.105622 1.618393 14430770
-0.007005 -0.111013 1.638659 14430770
-0.011191 -0.087715 1.634246 14430770
-0.002497 -0.086593 1.630001 14430770
-0.005961 -0.076534 1.648141 14430770
-0.003346 -0.070943 1.655089 14430770
0.007366 -0.044906 1.663134 14430770
-0.011415 -0.054797 1.684738 14430770
0.013596 -0.053775 1.675454 14430770
0.007114 -0.048579 1.682878 14430770
0.009729 -0.042988 1.689826 14430770
0.012343 -0.037397 1.696773 14430770
0.014958 -0.031806 1.703721 14430770
-0.048659 -0.157579 1.543307 14430770
-0.045973 -0.169805 1.560674 14430770
-0.042773 -0.156178 1.564488 14430770
-0.037501 -0.152914 1.581482 14430770
-0.037543 -0.144996 1.578383 14430770
-0.048985 -0.147206 1.590283 14430770
-0.017822 -0.149021 1.602318 14430770
-0.027594 -0.121234 1.597237 14430770
-0.041416 -0.118108 1.602336 14430770
-0.024468 -0.117042 1.613120 14430770
-0.021854 -0.111451 1.620068 14430770
-0.034613 -0.104638 1.615083 14430770
-0.016624 -0.100269 1.633963 14430770
-0.018595 -0.108687 1.657048 14430770
-0.011394 -0.089087 1.647858 14430770
-0.008779 -0.083496 1.654805 14430770
-0.009624 -0.083294 1.657080 14430770
-0.015007 -0.066256 1.670021 14430770
0.002628 -0.055738 1.663479 14430770
0.001680 -0.061133 1.682595 14430770
0.004295 -0.055542 1.689542 14430770
0.006910 -0.049951 1.696490 14430770
0.017454 -0.044054 1.712062 14430770
0.021849 -0.044604 1.700306 14430770
-0.050821 -0.174323 1.557257 14430770
-0.048206 -0.168732 1.564205 14430770
-0.046935 -0.156561 1.580775 14430770
-0.042976 -0.157550 1.578099 14430770
-0.040361 -0.151959 1.585047 14430770
-0.039136 -0.147349 1.603861 14430770
-0.016467 -0.145612 1.587630 14430770
-0.024314 -0.131266 1.618960 14430770
-0.029902 -0.129595 1.612837 14430770
-0.027287 -0.124004 1.619784 14430770
-0.022155 -0.129192 1.632884 14430770
-0.016537 -0.102216 1.634252 14430770
-0.005739 -0.104648 1.654847 14430770
-0.016827 -0.101641 1.647574 14430770
-0.014212 -0.096050 1.654521 14430770
-0.011598 -0.090459 1.661469 14430770
-0.008983 -0.084868 1.668416 14430770
-0.013117 -0.066804 1.678173 14430770
-0.003753 -0.073686 1.682311 14430770
0.015443 -0.056183 1.693791 14430770
0.015708 -0.041489 1.700609 14430770
0.004092 -0.056913 1.703154 14430770
0.006707 -0.051323 1.710101 14430770
0.019295 -0.041408 1.715792 14430770
-0.053639 -0.181285 1.563921 14430770
-0.051024 -0.175694 1.570869 14430770
-0.048409 -0.170103 1.577816 14430770
-0.054059 -0.160347 1.578524 14430770
-0.043180 -0.158922 1.591711 14430770
-0.040565 -0.153331 1.598658 14430770
-0.042109 -0.145734 1.592402 14430770
-0.036311 -0.149546 1.618606 14430770
-0.032720 -0.136558 1.619501 14430770
-0.030105 -0.130967 1.626448 14430770
-0.028784 -0.138485 1.638713 14430770
-0.024875 -0.119785 1.640343 14430770
-0.022261 -0.114194 1.647290 14430770
-0.015584 -0.118117 1.656929 14430770
-0.020292 -0.122100 1.669903 14430770
-0.014416 -0.097422 1.668133 14430770
-0.003264 -0.107029 1.692178 14430770
0.017493 -0.082151 1.672986 14430770
-0.010026 -0.081833 1.680207 14430770
-0.003956 -0.075058 1.695923 14430770
-0.001341 -0.069467 1.702870 14430770
0.001273 -0.063876 1.709818 14430770
0.003888 -0.058285 1.716765 14430770
0.001966 -0.048604 1.724692 14430770
-0.056458 -0.188248 1.570585 14430770
-0.054993 -0.186504 1.589772 14430770
-0.034289 -0.168707 1.584526 14430770
-0.025819 -0.153750 1.593234 14430770
-0.045998 -0.165884 1.598375 14430770
-0.043383 -0.160293 1.605322 14430770
-0.042844 -0.170276 1.605894 14430770
-0.038153 -0.149112 1.619217 14430770
-0.035538 -0.143521 1.626165 14430770
-0.032924 -0.137930 1.633112 14430770
-0.021570 -0.123246 1.636894 14430770
-0.027694 -0.126748 1.647007 14430770
-0.016713 -0.113933 1.670886 14430770
-0.048592 -0.123075 1.657494 14430770
-0.019849 -0.109975 1.667849 14430770
-0.017234 -0.104384 1.674797 14430770
-0.014619 -0.098793 1.681744 14430770
-0.010288 -0.077057 1.680677 14430770
-0.001877 -0.079618 1.697861 14430770
-0.006775 -0.082021 1.702587 14430770
-0.004600 -0.090985 1.718017 14430770
-0.012641 -0.080163 1.714660 14430770
0.001070 -0.065248 1.723429 14430770
0.006909 -0.058870 1.743119 14430770
-0.059276 -0.195211 1.577249 14430770
-0.056661 -0.189620 1.584196 14430770
-0.052023 -0.186480 1.583927 14430770
-0.042678 -0.169226 1.602745 14430770
-0.062527 -0.177186 1.615039 14430770
-0.048901 -0.160464 1.608867 14430770
-0.043234 -0.145224 1.624093 14430770
-0.040972 -0.156074 1.625881 14430770
-0.038357 -0.150483 1.632829 14430770
-0.044749 -0.127844 1.649949 14430770
-0.034118 -0.132296 1.635334 14430770
-0.030512 -0.133711 1.653671 14430770
-0.027897 -0.128120 1.660618 14430770
-0.023978 -0.134720 1.667875 14430770
-0.036755 -0.122810 1.673000 14430770
-0.011076 -0.110947 1.685353 14430770
0.005221 -0.109643 1.672989 14430770
-0.014823 -0.100165 1.695356 14430770
-0.013476 -0.102612 1.705497 14430770
-0.009593 -0.088983 1.709250 14430770
-0.006978 -0.083392 1.716198 14430770
-0.004363 -0.077801 1.723145 14430770
0.013672 -0.087404 1.735201 14430770
0.013795 -0.063860 1.736858 14430770
-0.062094 -0.202173 1.583913 14430770
-0.054103 -0.190819 1.600162 14430770
-0.056610 -0.184271 1.588212 14430770
-0.054250 -0.185401 1.604755 14430770
-0.051635 -0.179810 1.611703 14430770
-0.044334 -0.172287 1.606686 14430770
-0.046405 -0.168628 1.625598 14430770
-0.042232 -0.176068 1.620636 14430770
-0.041175 -0.157446 1.639492 14430770
-0.049275 -0.158441 1.655511 14430770
-0.031563 -0.145626 1.653905 14430770
-0.031742 -0.124779 1.661873 14430770
-0.024976 -0.136924 1.674139 14430770
-0.028101 -0.129491 1.674230 14430770
-0.017232 -0.154226 1.680804 14430770
-0.025351 -0.116581 1.695609 14430770
-0.027829 -0.120305 1.704892 14430770
-0.017641 -0.107128 1.702019 14430770
-0.022951 -0.085358 1.709945 14430770
-0.020700 -0.077988 1.726193 14430770
-0.009796 -0.090355 1.722862 14430770
-0.007182 -0.084764 1.729809 14430770
-0.003583 -0.070831 1.725749 14430770
-0.020558 -0.085987 1.755409 14430770
-0.064913 -0.209136 1.590577 14430770
-0.062298 -0.203545 1.597524 14430770
-0.059683 -0.197954 1.604472 14430770
-0.057068 -0.192363 1.611419 14430770
-0.054226 -0.188593 1.606692 14430770
-0.051838 -0.181181 1.625314 14430770
-0.054045 -0.180391 1.636845 14430770
-0.044086 -0.172008 1.644900 14430770
-0.053400 -0.162672 1.643758 14430770
-0.041379 -0.158818 1.653104 14430770
-0.038764 -0.153227 1.660051 14430770
-0.027028 -0.127490 1.672552 14430770
-0.042498 -0.135832 1.666447 14430770
-0.030919 -0.136454 1.680894 14430770
-0.028304 -0.130863 1.687841 14430770
-0.017171 -0.132116 1.693861 14430770
-0.020785 -0.116593 1.723461 14430770
-0.018989 -0.130692 1.709162 14430770
-0.017845 -0.108499 1.715631 14430770
-0.006101 -0.102726 1.742113 14430770
-0.012615 -0.097318 1.729526 14430770
-0.002362 -0.080329 1.735809 14430770
-0.007385 -0.086136 1.743421 14430770
-0.018636 -0.082596 1.758238 14430770
-0.069932 -0.206427 1.600436 14430770
-0.065116 -0.210508 1.604188 14430770
-0.062501 -0.204917 1.611136 14430770
-0.056904 -0.215619 1.634966 14430770
-0.065462 -0.216339 1.639773 14430770
-0.054656 -0.188144 1.631978 14430770
-0.052042 -0.182553 1.638925 14430770
-0.051135 -0.180266 1.630096 14430770
-0.022915 -0.180871 1.656547 14430770
-0.042183 -0.171428 1.657248 14430770
-0.032228 -0.172737 1.657499 14430770
-0.038967 -0.154599 1.673663 14430770
-0.036352 -0.149008 1.680610 14430770
-0.030207 -0.141132 1.691453 14430770
-0.014705 -0.123190 1.683311 14430770
-0.010303 -0.152417 1.697214 14430770
-0.017965 -0.124603 1.700861 14430770
-0.021110 -0.130664 1.721650 14430770
-0.020663 -0.115462 1.722295 14430770
-0.018048 -0.109871 1.729242 14430770
0.000643 -0.103403 1.738075 14430770
-0.005885 -0.079673 1.725606 14430770
-0.010203 -0.093098 1.750085 14430770
-0.012867 -0.093282 1.771538 14430770
-0.070549 -0.223061 1.603905 14430770
-0.067934 -0.217470 1.610852 14430770
-0.065319 -0.211879 1.617799 14430770
-0.049967 -0.210198 1.622447 14430770
-0.060090 -0.200698 1.631694 14430770
-0.057475 -0.195107 1.638642 14430770
-0.054860 -0.189516 1.645589 14430770
-0.052245 -0.183925 1.652537 14430770
-0.047392 -0.183910 1.640642 14430770
-0.049311 -0.187779 1.649655 14430770
-0.045869 -0.169851 1.673081 14430770
-0.041786 -0.161561 1.680327 14430770
-0.039171 -0.155970 1.687274 14430770
-0.025436 -0.141415 1.704105 14430770
-0.007553 -0.133487 1.696502 14430770
-0.031625 -0.134490 1.711309 14430770
-0.028711 -0.133607 1.715064 14430770
-0.035518 -0.110787 1.710744 14430770
-0.014274 -0.132662 1.732865 14430770
-0.025245 -0.117485 1.722249 14430770
-0.008423 -0.120569 1.739675 14430770
-0.015637 -0.105652 1.749801 14430770
-0.020743 -0.096483 1.755428 14430770
-0.010407 -0.094470 1.763696 14430770
-0.064200 -0.214888 1.607561 14430770
-0.051512 -0.232845 1.634406 14430770
-0.068138 -0.218842 1.624463 14430770
-0.065523 -0.213251 1.631411 14430770
-0.062908 -0.207660 1.638358 14430770
-0.060293 -0.202069 1.645306 14430770
-0.057678 -0.196478 1.652253 14430770
-0.055063 -0.190887 1.659201 14430770
-0.063008 -0.193665 1.676092 14430770
-0.049834 -0.179706 1.673096 14430770
-0.047219 -0.174115 1.680043 14430770
-0.050096 -0.173966 1.695260 14430770
-0.041989 -0.162933 1.693938 14430770
-0.029339 -0.170805 1.677369 14430770
-0.034553 -0.138365 1.712882 14430770
-0.025513 -0.149505 1.732572 14430770
-0.052093 -0.144226 1.723121 14430770
-0.030934 -0.139342 1.730587 14430770
-0.034261 -0.128385 1.747111 14430770
-0.023685 -0.123797 1.742570 14430770
-0.021070 -0.118206 1.749518 14430770
-0.018455 -0.112615 1.756465 14430770
-0.015840 -0.107024 1.763412 14430770
-0.022943 -0.100408 1.760925 14430770
-0.075390 -0.250457 1.609826 14430770
-0.073571 -0.231396 1.624180 14430770
-0.069389 -0.220797 1.638727 14430770
-0.070697 -0.229395 1.631273 14430770
-0.078798 -0.211951 1.636240 14430770
-0.063112 -0.209032 1.651970 14430770
-0.058916 -0.230447 1.667402 14430770
-0.056985 -0.200155 1.658727 14430770
-0.055267 -0.192259 1.672812 14430770
-0.058174 -0.197564 1.659936 14430770
-0.050037 -0.181077 1.686707 14430770
-0.061021 -0.178805 1.685435 14430770
-0.044807 -0.169896 1.700602 14430770
-0.042192 -0.164305 1.707549 14430770
-0.059510 -0.152128 1.736331 14430770
-0.036963 -0.153123 1.721444 14430770
-0.034348 -0.147532 1.728392 14430770
-0.031733 -0.141941 1.735339 14430770
-0.038694 -0.138072 1.733633 14430770
-0.026503 -0.130759 1.749234 14430770
-0.029229 -0.126084 1.761179 14430770
-0.021273 -0.119577 1.763129 14430770
-0.023144 -0.122802 1.768538 14430770
-0.016044 -0.108396 1.777024 14430770
-0.079004 -0.243949 1.623896 14430770
-0.063919 -0.248991 1.636142 14430770
-0.063837 -0.233382 1.646167 14430770
-0.079899 -0.237586 1.646125 14430770
-0.072263 -0.223190 1.656581 14430770
-0.065930 -0.215995 1.658634 14430770
-0.063315 -0.210404 1.665581 14430770
-0.062152 -0.207928 1.664253 14430770
-0.042480 -0.195406 1.669666 14430770
-0.065064 -0.200443 1.670124 14430770
-0.052855 -0.188040 1.693371 14430770
-0.050769 -0.174381 1.689718 14430770
-0.044764 -0.182033 1.713340 14430770
-0.045011 -0.171267 1.714213 14430770
-0.042396 -0.165676 1.721161 14430770
-0.041476 -0.171403 1.725091 14430770
-0.035304 -0.160089 1.744646 14430770
-0.042025 -0.159086 1.741431 14430770
-0.031936 -0.143313 1.748950 14430770
-0.026013 -0.139516 1.759863 14430770
-0.026707 -0.132131 1.762845 14430770
-0.024092 -0.126540 1.769793 14430770
-0.031861 -0.129948 1.785656 14430770
-0.022950 -0.104454 1.784188 14430770
-0.256668 -0.044461 1.530229 14430770
-0.254053 -0.038870 1.537176 14430770
-0.251438 -0.033279 1.544124 14430770
-0.248823 -0.027688 1.551071 14430770
-0.239929 -0.010951 1.563334 14430770
-0.248452 -0.037464 1.577556 14430770
-0.240979 -0.010915 1.571913 14430770
-0.242189 -0.008461 1.589414 14430770
-0.243012 -0.007211 1.575949 14430770
-0.233134 0.005857 1.592756 14430770
-0.230808 0.011484 1.597914 14430770
-0.227904 0.017039 1.606651 14430770
-0.234536 0.032910 1.621709 14430770
-0.222674 0.028221 1.620546 14430770
-0.223326 0.027658 1.632062 14430770
-0.230744 0.049363 1.633507 14430770
-0.214830 0.044994 1.641388 14430770
-0.212215 0.050585 1.648335 14430770
-0.191522 0.050123 1.692858 14430770
-0.224572 0.044744 1.664583 14430770
-0.204370 0.067357 1.669178 14430770
-0.201755 0.072948 1.676125 14430770
-0.196494 0.060510 1.684804 14430770
-0.200563 0.101367 1.688109 14430770
-0.259486 -0.051424 1.536893 14430770
-0.247599 -0.041677 1.530359 14430770
-0.245259 -0.042099 1.531368 14430770
-0.260268 -0.029265 1.558524 14430770
-0.249027 -0.029060 1.564682 14430770
-0.239289 -0.029785 1.569050 14430770
-0.243797 -0.017878 1.578577 14430770
-0.241182 -0.012287 1.585525 14430770
-0.245837 -0.008280 1.597606 14430770
-0.235952 -0.001105 1.599420 14430770
-0.233337 0.004486 1.606367 14430770
-0.230723 0.010076 1.613315 14430770
-0.228108 0.015667 1.620262 14430770
-0.227583 0.022868 1.622188 14430770
-0.222878 0.026849 1.634157 14430770
-0.220263 0.032440 1.641104 14430770
-0.217648 0.038031 1.648052 14430770
-0.215033 0.043622 1.654999 14430770
-0.212418 0.049213 1.661947 14430770
-0.209804 0.054804 1.668894 14430770
-0.207189 0.060395 1.675842 14430770
-0.210074 0.053311 1.680720 14430770
-0.200845 0.071396 1.699785 14430770
-0.196420 0.069666 1.694212 14430770
-0.262305 -0.058386 1.543557 14430770
-0.259690 -0.052795 1.550504 14430770
-0.257075 -0.047204 1.557451 14430770
-0.254250 -0.045462 1.573641 14430770
-0.251845 -0.036023 1.571346 14430770
-0.252205 -0.005664 1.578369 14430770
-0.246615 -0.024841 1.585241 14430770
-0.244000 -0.019250 1.592189 14430770
-0.233683 -0.022013 1.595636 14430770
-0.234942 -0.005168 1.600118 14430770
-0.234825 0.009545 1.604867 14430770
-0.233541 0.003114 1.619979 14430770
-0.221968 -0.003983 1.636009 14430770
-0.238741 0.032111 1.620363 14430770
-0.224995 0.021047 1.655632 14430770
-0.223081 0.025477 1.647768 14430770
-0.218257 0.032082 1.656379 14430770
-0.217610 0.046522 1.675635 14430770
-0.215237 0.042250 1.668611 14430770
-0.210329 0.039336 1.681787 14430770
-0.212482 0.054818 1.694677 14430770
-0.207392 0.059023 1.689453 14430770
-0.210750 0.069224 1.691880 14430770
-0.202162 0.070205 1.703348 14430770
-0.263187 -0.073849 1.550813 14430770
-0.262508 -0.059758 1.557168 14430770
-0.259893 -0.054167 1.564115 14430770
-0.258887 -0.052041 1.595539 14430770
-0.254664 -0.042985 1.578010 14430770
-0.239246 -0.043631 1.577839 14430770
-0.249434 -0.031803 1.591905 14430770
-0.246819 -0.026213 1.598853 14430770
-0.230667 -0.022514 1.600524 14430770
-0.241589 -0.015031 1.612748 14430770
-0.248178 -0.004615 1.627904 14430770
