# .PCD v.7 - Point Cloud Data file format
VERSION .7
FIELDS x y z rgb
SIZE 4 4 4 4
TYPE F F F U
COUNT 1 1 1 1
WIDTH 1292
HEIGHT 1
VIEWPOINT 0 0 0 1 0 0 0
POINTS 1292
DATA ascii
-0.118209 -0.067888 1.800738 3297500
-0.116961 -0.088070 1.804345 3297500
-0.116974 -0.098222 1.804664 3297500
-0.116987 -0.108374 1.804983 3297500
-0.123089 -0.105729 1.789160 3297500
-0.111580 -0.140925 1.809690 3297500
-0.117026 -0.138829 1.805940 3297500
-0.116230 -0.160441 1.817169 3297500
-0.108821 0.005357 1.786624 3297500
-0.122962 -0.020037 1.794595 3297500
-0.129354 -0.031955 1.797936 3297500
-0.120924 -0.037574 1.794238 3297500
-0.131002 -0.046289 1.793538 3297500
-0.120950 -0.057877 1.794876 3297500
-0.120963 -0.068029 1.795195 3297500
-0.093103 -0.068928 1.787480 3297500
-0.120989 -0.088333 1.795833 3297500
-0.106780 -0.092674 1.806875 3297500
-0.126747 -0.115362 1.788250 3297500
-0.121028 -0.118788 1.796790 3297500
-0.121041 -0.128940 1.797108 3297500
-0.113714 -0.160724 1.798019 3297500
-0.121067 -0.149244 1.797746 3297500
-0.132165 -0.007101 1.780020 3297500
-0.124926 -0.017532 1.785088 3297500
-0.137239 -0.030026 1.776549 3297500
-0.118855 -0.048207 1.765479 3297500
-0.124965 -0.047988 1.786045 3297500
-0.124978 -0.058140 1.786364 3297500
-0.132972 -0.073742 1.806061 3297500
-0.109476 -0.084117 1.782744 3297500
-0.125017 -0.088595 1.787320 3297500
-0.120155 -0.102033 1.785249 3297500
-0.113820 -0.117639 1.776586 3297500
-0.129353 -0.122931 1.784677 3297500
-0.119086 -0.127567 1.787404 3297500
-0.119453 -0.139055 1.796307 3297500
-0.125095 -0.149506 1.789234 3297500
-0.128942 -0.007643 1.776257 3297500
-0.153367 -0.027103 1.786721 3297500
-0.128968 -0.027946 1.776895 3297500
-0.128981 -0.038098 1.777214 3297500
-0.128994 -0.048250 1.777532 3297500
-0.129007 -0.058402 1.777851 3297500
-0.129020 -0.068554 1.778170 3297500
-0.129032 -0.078705 1.778489 3297500
-0.135634 -0.083097 1.782888 3297500
-0.141196 -0.109940 1.780102 3297500
-0.141320 -0.095483 1.794825 3297500
-0.124975 -0.124353 1.784726 3297500
-0.131589 -0.132158 1.776213 3297500
-0.129110 -0.139616 1.780403 3297500
-0.129123 -0.149768 1.780722 3297500
-0.132970 -0.007905 1.767744 3297500
-0.132983 -0.018057 1.768063 3297500
-0.132996 -0.028209 1.768382 3297500
-0.133009 -0.038361 1.768701 3297500
-0.123553 -0.047310 1.764384 3297500
-0.127381 -0.060200 1.745006 3297500
-0.143467 -0.072366 1.783865 3297500
-0.130256 -0.067654 1.768316 3297500
-0.133074 -0.089120 1.770296 3297500
-0.133087 -0.099271 1.770615 3297500
-0.133423 -0.123933 1.764295 3297500
-0.133113 -0.119575 1.771252 3297500
-0.123920 -0.116418 1.773339 3297500
-0.145200 -0.142271 1.770342 3297500
-0.122458 -0.152756 1.782504 3297500
-0.155053 -0.008103 1.734787 3297500
-0.137011 -0.018319 1.759551 3297500
-0.137024 -0.028471 1.759870 3297500
-0.137037 -0.038623 1.760189 3297500
-0.150879 -0.047427 1.766810 3297500
-0.132403 -0.052227 1.749252 3297500
-0.147847 -0.072720 1.757500 3297500
-0.147854 -0.074584 1.760611 3297500
-0.137102 -0.089382 1.761783 3297500
-0.148362 -0.092991 1.767823 3297500
-0.129923 -0.105510 1.769947 3297500
-0.133383 -0.121708 1.772791 3297500
-0.136126 -0.141224 1.753852 3297500
-0.144942 -0.137204 1.778662 3297500
-0.137024 -0.138997 1.767767 3297500
-0.141026 -0.008430 1.750720 3297500
-0.131537 -0.008170 1.747273 3297500
-0.141052 -0.028733 1.751358 3297500
-0.150414 -0.039038 1.747832 3297500
-0.136648 -0.048795 1.743028 3297500
-0.141091 -0.059189 1.752314 3297500
-0.141104 -0.069340 1.752633 3297500
-0.142633 -0.079055 1.763941 3297500
-0.137544 -0.089498 1.754374 3297500
-0.141143 -0.099796 1.753590 3297500
-0.141156 -0.109948 1.753909 3297500
-0.141025 -0.116856 1.758672 3297500
-0.141182 -0.130251 1.754547 3297500
-0.141195 -0.140403 1.754866 3297500
-0.142164 -0.156569 1.740285 3297500
-0.133611 0.008171 1.725125 3297500
-0.140734 -0.017678 1.742372 3297500
-0.145080 -0.028996 1.742845 3297500
-0.145093 -0.039147 1.743164 3297500
-0.145106 -0.049299 1.743483 3297500
-0.145119 -0.059451 1.743802 3297500
-0.150229 -0.065697 1.743286 3297500
-0.134349 -0.086189 1.753317 3297500
-0.145158 -0.089906 1.744759 3297500
-0.141119 -0.097422 1.752535 3297500
-0.145184 -0.110210 1.745396 3297500
-0.146065 -0.120898 1.737487 3297500
-0.145210 -0.130513 1.746034 3297500
-0.137692 -0.156708 1.732030 3297500
-0.143665 -0.153189 1.754746 3297500
-0.149083 -0.008954 1.733695 3297500
-0.149096 -0.019106 1.734014 3297500
-0.150091 -0.030653 1.738215 3297500
-0.149122 -0.039410 1.734652 3297500
-0.149135 -0.049561 1.734971 3297500
-0.143456 -0.076074 1.718319 3297500
-0.149160 -0.069865 1.735608 3297500
-0.149173 -0.080017 1.735927 3297500
-0.149186 -0.090169 1.736246 3297500
-0.140626 -0.115713 1.730622 3297500
-0.149212 -0.110472 1.736884 3297500
-0.149225 -0.120624 1.737203 3297500
-0.149238 -0.130776 1.737522 3297500
-0.157678 -0.131099 1.737594 3297500
-0.143882 -0.137962 1.735652 3297500
-0.153111 -0.009216 1.725183 3297500
-0.153124 -0.019368 1.725502 3297500
-0.159890 -0.017117 1.733671 3297500
-0.153150 -0.039672 1.726139 3297500
-0.153163 -0.049824 1.726458 3297500
-0.153176 -0.059975 1.726777 3297500
-0.153189 -0.070127 1.727096 3297500
-0.153202 -0.080279 1.727415 3297500
-0.153215 -0.090431 1.727734 3297500
-0.145711 -0.083987 1.741529 3297500
-0.153241 -0.110734 1.728372 3297500
-0.173271 -0.118954 1.733647 3297500
-0.145880 -0.120369 1.715039 3297500
-0.160488 -0.146093 1.735025 3297500
-0.151980 -0.153947 1.745825 3297500
-0.157139 -0.009479 1.716670 3297500
-0.157152 -0.019630 1.716989 3297500
-0.153768 -0.032216 1.691649 3297500
-0.160134 -0.034359 1.724534 3297500
-0.157191 -0.050086 1.717946 3297500
-0.157204 -0.060238 1.718265 3297500
-0.157217 -0.070389 1.718584 3297500
-0.157230 -0.080541 1.718903 3297500
-0.152889 -0.104237 1.733872 3297500
-0.157256 -0.100845 1.719540 3297500
-0.152468 -0.097876 1.715370 3297500
-0.156664 -0.121263 1.726271 3297500
-0.157295 -0.131300 1.720497 3297500
-0.157308 -0.141452 1.720816 3297500
-0.163032 -0.137382 1.718273 3297500
-0.156672 -0.004423 1.714294 3297500
-0.161180 -0.019893 1.708477 3297500
-0.161193 -0.030045 1.708796 3297500
-0.161206 -0.040196 1.709115 3297500
-0.162597 -0.042001 1.716827 3297500
-0.166291 -0.049808 1.704586 3297500
-0.161172 -0.073213 1.704018 3297500
-0.159427 -0.080776 1.716128 3297500
-0.161271 -0.090955 1.710709 3297500
-0.161284 -0.101107 1.711028 3297500
-0.161297 -0.111259 1.711347 3297500
-0.157663 -0.119716 1.706662 3297500
-0.161323 -0.131563 1.711985 3297500
-0.161336 -0.141714 1.712304 3297500
-0.161349 -0.151866 1.712623 3297500
-0.163574 0.007274 1.690575 3297500
-0.165208 -0.020155 1.699964 3297500
-0.165221 -0.030307 1.700283 3297500
-0.159895 -0.042533 1.682301 3297500
-0.167517 -0.038743 1.706860 3297500
-0.154891 -0.062238 1.701340 3297500
-0.165273 -0.070914 1.701559 3297500
-0.165286 -0.081066 1.701878 3297500
-0.153541 -0.098472 1.720434 3297500
-0.160151 -0.104613 1.712652 3297500
-0.152432 -0.108953 1.695289 3297500
-0.158827 -0.139747 1.709138 3297500
-0.160905 -0.123147 1.687173 3297500
-0.183337 -0.146924 1.684986 3297500
-0.157233 -0.155033 1.701172 3297500
-0.165195 -0.010003 1.699645 3297500
-0.165208 -0.020155 1.699964 3297500
-0.165221 -0.030307 1.700283 3297500
-0.167663 -0.037566 1.700251 3297500
-0.165247 -0.050610 1.700921 3297500
-0.165260 -0.060762 1.701240 3297500
-0.165273 -0.070914 1.701559 3297500
-0.165286 -0.081066 1.701878 3297500
-0.165299 -0.091218 1.702197 3297500
-0.165312 -0.101369 1.702516 3297500
-0.162285 -0.122769 1.711201 3297500
-0.166183 -0.112764 1.703024 3297500
-0.166183 -0.113004 1.698395 3297500
-0.154701 -0.142762 1.712280 3297500
-0.165377 -0.152128 1.704110 3297500
-0.183086 -0.003672 1.702641 3297500
-0.178634 -0.028188 1.684139 3297500
-0.173743 -0.030169 1.704311 3297500
-0.182501 -0.037492 1.704302 3297500
-0.173769 -0.050473 1.704949 3297500
-0.173782 -0.060625 1.705268 3297500
-0.162605 -0.070933 1.698688 3297500
-0.173808 -0.080928 1.705906 3297500
-0.173820 -0.091080 1.706225 3297500
-0.167182 -0.111382 1.716522 3297500
-0.173846 -0.111384 1.706863 3297500
-0.187793 -0.110911 1.721062 3297500
-0.173872 -0.131687 1.707501 3297500
-0.173885 -0.141839 1.707819 3297500
-0.173898 -0.151991 1.708138 3297500
-0.182238 -0.009728 1.707702 3297500
-0.182251 -0.019880 1.708021 3297500
-0.182264 -0.030032 1.708340 3297500
-0.177080 -0.030215 1.690363 3297500
-0.164587 -0.051057 1.725227 3297500
-0.182303 -0.060487 1.709296 3297500
-0.185862 -0.074491 1.720622 3297500
-0.195424 -0.079731 1.701732 3297500
-0.182342 -0.090943 1.710253 3297500
-0.190041 -0.097380 1.700554 3297500
-0.192772 -0.105209 1.725893 3297500
-0.182381 -0.121398 1.711210 3297500
-0.182394 -0.131550 1.711529 3297500
-0.183493 -0.147410 1.718680 3297500
-0.182420 -0.151853 1.712167 3297500
-0.185787 -0.016249 1.717619 3297500
-0.190772 -0.019743 1.712049 3297500
-0.190785 -0.029894 1.712368 3297500
-0.175429 -0.060882 1.706855 3297500
-0.190811 -0.050198 1.713006 3297500
-0.190824 -0.060350 1.713325 3297500
-0.190837 -0.070502 1.713643 3297500
-0.190850 -0.080653 1.713962 3297500
-0.190863 -0.090805 1.714281 3297500
-0.190876 -0.100957 1.714600 3297500
-0.170279 -0.101950 1.743876 3297500
-0.190902 -0.121261 1.715238 3297500
-0.177902 -0.106946 1.720508 3297500
-0.185208 -0.139356 1.707153 3297500
-0.190632 -0.142454 1.700403 3297500
-0.190238 0.007730 1.714226 3297500
-0.224711 -0.023444 1.717829 3297500
-0.217622 -0.027855 1.701610 3297500
-0.206393 -0.019568 1.717327 3297500
-0.198503 -0.048422 1.710157 3297500
-0.203247 -0.072180 1.722872 3297500
-0.199358 -0.070364 1.717672 3297500
-0.199371 -0.080516 1.717991 3297500
-0.194638 -0.100068 1.707571 3297500
-0.199397 -0.100820 1.718628 3297500
-0.199410 -0.110971 1.718947 3297500
-0.187102 -0.115017 1.731357 3297500
-0.208198 -0.132536 1.719730 3297500
-0.181891 -0.151927 1.722944 3297500
-0.196776 -0.151679 1.707964 3297500
-0.207802 -0.009316 1.719786 3297500
-0.207815 -0.019468 1.720105 3297500
-0.207828 -0.029620 1.720424 3297500
-0.220298 -0.054211 1.722960 3297500
-0.207854 -0.049923 1.721062 3297500
-0.198791 -0.064643 1.717624 3297500
-0.207880 -0.070227 1.721700 3297500
-0.199456 -0.076192 1.706447 3297500
-0.207906 -0.090530 1.722338 3297500
-0.207919 -0.100682 1.722657 3297500
-0.207932 -0.110834 1.722975 3297500
-0.207945 -0.120986 1.723294 3297500
-0.204234 -0.133472 1.725200 3297500
-0.207970 -0.141289 1.723932 3297500
-0.206416 -0.161032 1.733011 3297500
-0.216323 -0.009179 1.723815 3297500
-0.222839 -0.020721 1.722504 3297500
-0.202300 -0.041560 1.710620 3297500
-0.227161 -0.026433 1.740150 3297500
-0.218301 -0.047752 1.736906 3297500
-0.221191 -0.057860 1.726774 3297500
-0.223316 -0.073792 1.726216 3297500
-0.213770 -0.087155 1.727849 3297500
-0.216425 -0.105434 1.719727 3297500
-0.205358 -0.091819 1.738086 3297500
-0.216453 -0.110697 1.727004 3297500
-0.225246 -0.130025 1.733492 3297500
-0.216479 -0.131000 1.727641 3297500
-0.216492 -0.141152 1.727960 3297500
-0.227055 -0.156217 1.732741 3297500
-0.219751 -0.000433 1.712465 3297500
-0.224857 -0.019193 1.728162 3297500
-0.224870 -0.029345 1.728480 3297500
-0.219375 -0.041056 1.724470 3297500
-0.224896 -0.049648 1.729118 3297500
-0.226390 -0.056018 1.737879 3297500
-0.224922 -0.069952 1.729756 3297500
-0.224935 -0.080104 1.730075 3297500
-0.224948 -0.090256 1.730394 3297500
-0.224961 -0.100407 1.730713 3297500
-0.221545 -0.103048 1.721900 3297500
-0.212983 -0.136546 1.739384 3297500
-0.225000 -0.130863 1.731670 3297500
-0.225392 -0.143791 1.759278 3297500
-0.218766 -0.136460 1.728828 3297500
-0.233366 -0.008904 1.731871 3297500
-0.233379 -0.019055 1.732190 3297500
-0.220463 -0.019670 1.734374 3297500
-0.225696 -0.039610 1.729244 3297500
-0.230113 -0.038452 1.728808 3297500
-0.233430 -0.059663 1.733465 3297500
-0.226967 -0.049098 1.717242 3297500
-0.234107 -0.087189 1.738496 3297500
-0.235940 -0.105233 1.731610 3297500
-0.252195 -0.083266 1.723690 3297500
-0.233495 -0.110422 1.735060 3297500
-0.233508 -0.120573 1.735379 3297500
-0.238566 -0.124285 1.728276 3297500
-0.232339 -0.138782 1.727960 3297500
-0.233547 -0.151029 1.736336 3297500
-0.241887 -0.008766 1.735899 3297500
-0.238063 -0.022654 1.722893 3297500
-0.241913 -0.029070 1.736537 3297500
-0.242621 -0.037345 1.731216 3297500
-0.241939 -0.049373 1.737175 3297500
-0.241952 -0.059525 1.737494 3297500
-0.248226 -0.052349 1.725370 3297500
-0.241978 -0.079829 1.738131 3297500
-0.238650 -0.078268 1.734033 3297500
-0.235125 -0.083634 1.730557 3297500
-0.229053 -0.095969 1.741483 3297500
-0.242030 -0.120436 1.739407 3297500
-0.242043 -0.130588 1.739726 3297500
-0.242998 -0.135724 1.748480 3297500
-0.241569 -0.159365 1.734870 3297500
-0.235875 0.003320 1.727868 3297500
-0.250421 -0.018781 1.740246 3297500
-0.250434 -0.028932 1.740565 3297500
-0.250447 -0.039084 1.740884 3297500
-0.250460 -0.049236 1.741203 3297500
-0.248425 -0.056396 1.732356 3297500
-0.267902 -0.077190 1.750885 3297500
-0.248694 -0.083316 1.730119 3297500
-0.250512 -0.089843 1.742478 3297500
-0.254437 -0.096517 1.742297 3297500
-0.250538 -0.110147 1.743116 3297500
-0.263979 -0.116224 1.737796 3297500
-0.250564 -0.130450 1.743754 3297500
-0.250577 -0.140602 1.744073 3297500
-0.250590 -0.150754 1.744392 3297500
-0.275357 -0.015787 1.758458 3297500
-0.266173 -0.002109 1.745147 3297500
-0.262564 -0.032582 1.739296 3297500
-0.251321 -0.035906 1.753412 3297500
-0.258981 -0.049099 1.745231 3297500
-0.269875 -0.076106 1.735081 3297500
-0.247751 -0.087233 1.751119 3297500
-0.259020 -0.079554 1.746188 3297500
-0.262483 -0.095816 1.750749 3297500
-0.250627 -0.104491 1.758223 3297500
-0.259059 -0.110009 1.747144 3297500
-0.259072 -0.120161 1.747463 3297500
-0.249344 -0.145604 1.777446 3297500
-0.259098 -0.140465 1.748101 3297500
-0.259111 -0.150617 1.748420 3297500
-0.267451 -0.008354 1.747984 3297500
-0.238531 -0.018879 1.743328 3297500
-0.272274 -0.026927 1.749150 3297500
-0.267490 -0.038809 1.748940 3297500
-0.260726 -0.058597 1.745640 3297500
-0.252833 -0.071011 1.746098 3297500
-0.267529 -0.069265 1.749897 3297500
-0.267541 -0.079417 1.750216 3297500
-0.271354 -0.080512 1.756010 3297500
-0.270124 -0.093145 1.738263 3297500
-0.267580 -0.109872 1.751173 3297500
-0.267235 -0.099049 1.761348 3297500
-0.264679 -0.105797 1.757011 3297500
-0.272262 -0.128517 1.743092 3297500
-0.269394 -0.154275 1.761151 3297500
-0.272752 -0.002858 1.740789 3297500
-0.275985 -0.018368 1.752331 3297500
-0.271718 -0.060358 1.749788 3297500
-0.270867 -0.032862 1.749210 3297500
-0.276024 -0.048824 1.753287 3297500
-0.276037 -0.058975 1.753606 3297500
-0.283270 -0.065421 1.750811 3297500
-0.282017 -0.076340 1.757171 3297500
-0.276076 -0.089431 1.754563 3297500
-0.267950 -0.087734 1.737559 3297500
-0.291644 -0.120583 1.761103 3297500
-0.278079 -0.131078 1.751540 3297500
-0.261849 -0.138859 1.757400 3297500
-0.280106 -0.130946 1.751118 3297500
-0.274149 -0.154114 1.746398 3297500
-0.261897 -0.016383 1.765628 3297500
-0.282291 -0.021725 1.753241 3297500
-0.279730 -0.030518 1.755743 3297500
-0.284532 -0.038534 1.756997 3297500
-0.293172 -0.042521 1.749394 3297500
-0.284558 -0.058838 1.757634 3297500
-0.294105 -0.051552 1.755273 3297500
-0.274490 -0.075946 1.751656 3297500
-0.266982 -0.076605 1.766961 3297500
-0.279506 -0.107578 1.749423 3297500
-0.285538 -0.107374 1.744647 3297500
-0.284636 -0.119749 1.759548 3297500
-0.284649 -0.129901 1.759867 3297500
-0.284662 -0.140052 1.760186 3297500
-0.272116 -0.147848 1.762202 3297500
-0.293014 -0.007942 1.760068 3297500
-0.296075 -0.032388 1.767879 3297500
-0.292579 -0.020742 1.759611 3297500
-0.293053 -0.038397 1.761025 3297500
-0.293066 -0.048549 1.761344 3297500
-0.291930 -0.049168 1.768037 3297500
-0.286922 -0.062505 1.773828 3297500
-0.293105 -0.079004 1.762300 3297500
-0.277439 -0.079348 1.757251 3297500
-0.289178 -0.084268 1.751276 3297500
-0.293857 -0.116842 1.745131 3297500
-0.310204 -0.106494 1.770631 3297500
-0.308262 -0.130824 1.772107 3297500
-0.295668 -0.138238 1.762423 3297500
-0.293196 -0.150067 1.764533 3297500
-0.301536 -0.007804 1.764096 3297500
-0.301549 -0.017956 1.764415 3297500
-0.309667 -0.026254 1.756942 3297500
-0.301575 -0.038260 1.765053 3297500
-0.288768 -0.039660 1.758795 3297500
-0.324035 -0.056961 1.780864 3297500
-0.287165 -0.053778 1.754969 3297500
-0.301627 -0.078867 1.766329 3297500
-0.301640 -0.089019 1.766647 3297500
-0.301653 -0.099170 1.766966 3297500
-0.301666 -0.109322 1.767285 3297500
-0.301678 -0.119474 1.767604 3297500
-0.301884 -0.147331 1.775881 3297500
-0.301704 -0.139778 1.768242 3297500
-0.301717 -0.149929 1.768561 3297500
-0.318768 -0.001529 1.772414 3297500
-0.310070 -0.017819 1.768443 3297500
-0.309067 -0.048771 1.771866 3297500
-0.292832 -0.026140 1.759026 3297500
-0.310109 -0.048274 1.769400 3297500
-0.307175 -0.049931 1.768641 3297500
-0.321239 -0.078345 1.769691 3297500
-0.302390 -0.086511 1.787852 3297500
-0.303442 -0.087433 1.769062 3297500
-0.310174 -0.099033 1.770995 3297500
-0.310187 -0.109185 1.771313 3297500
-0.310200 -0.119337 1.771632 3297500
-0.310213 -0.129488 1.771951 3297500
-0.310226 -0.139640 1.772270 3297500
-0.312133 -0.159415 1.751561 3297500
-0.318578 -0.007529 1.772153 3297500
-0.308167 -0.030993 1.765628 3297500
-0.318604 -0.027833 1.772790 3297500
-0.295309 -0.035147 1.770605 3297500
-0.328874 -0.038226 1.770109 3297500
-0.318643 -0.058288 1.773747 3297500
-0.318656 -0.068440 1.774066 3297500
-0.325859 -0.085034 1.784739 3297500
-0.318682 -0.088744 1.774704 3297500
-0.318695 -0.098895 1.775023 3297500
-0.318708 -0.109047 1.775342 3297500
-0.318721 -0.119199 1.775661 3297500
-0.331327 -0.118201 1.788779 3297500
-0.318979 -0.131553 1.788576 3297500
-0.318760 -0.149654 1.776617 3297500
-0.327099 -0.007392 1.776181 3297500
-0.327112 -0.017544 1.776500 3297500
-0.327125 -0.027695 1.776819 3297500
-0.327138 -0.037847 1.777137 3297500
-0.317341 -0.034254 1.783314 3297500
-0.310516 -0.056683 1.776961 3297500
-0.327177 -0.068303 1.778094 3297500
-0.327190 -0.078454 1.778413 3297500
-0.314258 -0.100534 1.777196 3297500
-0.323955 -0.085939 1.779492 3297500
-0.330405 -0.105180 1.779495 3297500
-0.330354 -0.123970 1.789125 3297500
-0.327255 -0.129213 1.780008 3297500
-0.333973 -0.144680 1.784867 3297500
-0.327281 -0.149517 1.780645 3297500
-0.335621 -0.007254 1.780209 3297500
-0.335634 -0.017406 1.780528 3297500
-0.335647 -0.027558 1.780847 3297500
-0.335660 -0.037710 1.781166 3297500
-0.335673 -0.047862 1.781485 3297500
-0.331813 -0.061325 1.785035 3297500
-0.321016 -0.071962 1.778007 3297500
-0.335712 -0.078317 1.782441 3297500
-0.331824 -0.086285 1.767599 3297500
-0.335738 -0.098621 1.783079 3297500
-0.335751 -0.108772 1.783398 3297500
-0.345711 -0.137273 1.776581 3297500
-0.335777 -0.129076 1.784036 3297500
-0.335790 -0.139228 1.784355 3297500
-0.323962 -0.152934 1.788389 3297500
-0.347846 -0.007749 1.784620 3297500
-0.329809 -0.037637 1.775298 3297500
-0.344168 -0.027421 1.784875 3297500
-0.344181 -0.037572 1.785194 3297500
-0.344194 -0.047724 1.785513 3297500
-0.344207 -0.057876 1.785832 3297500
-0.344220 -0.068028 1.786151 3297500
-0.342185 -0.079291 1.787072 3297500
-0.344246 -0.088331 1.786788 3297500
-0.370110 -0.100341 1.777341 3297500
-0.344272 -0.108635 1.787426 3297500
-0.339767 -0.109680 1.773823 3297500
-0.340575 -0.125162 1.784577 3297500
-0.344311 -0.139090 1.788383 3297500
-0.346761 -0.140896 1.797445 3297500
-0.350782 0.004822 1.812852 3297500
-0.352676 -0.017131 1.788584 3297500
-0.352689 -0.027283 1.788903 3297500
-0.368968 -0.046244 1.795314 3297500
-0.352715 -0.047587 1.789541 3297500
-0.351620 -0.061681 1.796205 3297500
-0.352741 -0.067890 1.790179 3297500
-0.354899 -0.072791 1.809106 3297500
-0.352767 -0.088194 1.790817 3297500
-0.351543 -0.109393 1.789283 3297500
-0.352793 -0.108498 1.791454 3297500
-0.352806 -0.118649 1.791773 3297500
-0.345537 -0.128435 1.797522 3297500
-0.336594 -0.141902 1.787703 3297500
-0.352845 -0.149105 1.792730 3297500
-0.096716 -0.005545 1.844356 3297500
-0.096729 -0.015697 1.844675 3297500
-0.106182 -0.018434 1.861378 3297500
-0.100898 -0.029709 1.830658 3297500
-0.096017 -0.027791 1.853252 3297500
-0.090443 -0.062396 1.846178 3297500
-0.107293 -0.065730 1.841490 3297500
-0.096807 -0.076607 1.846588 3297500
-0.096820 -0.086759 1.846907 3297500
-0.095766 -0.092209 1.849398 3297500
-0.092923 -0.113004 1.858397 3297500
-0.096859 -0.117215 1.847864 3297500
-0.096872 -0.127366 1.848183 3297500
-0.096885 -0.137518 1.848502 3297500
-0.094790 -0.141896 1.862473 3297500
-0.105237 -0.005407 1.848384 3297500
-0.096220 -0.007814 1.845918 3297500
-0.105263 -0.025711 1.849022 3297500
-0.104387 -0.026895 1.852448 3297500
-0.097743 -0.034724 1.850539 3297500
-0.105302 -0.056166 1.849978 3297500
-0.094961 -0.066857 1.842438 3297500
-0.114209 -0.080352 1.858146 3297500
-0.105341 -0.086622 1.850935 3297500
-0.105354 -0.096774 1.851254 3297500
-0.105706 -0.117488 1.845307 3297500
-0.105380 -0.117077 1.851892 3297500
-0.090988 -0.132023 1.851017 3297500
-0.105406 -0.137381 1.852530 3297500
-0.094134 -0.163622 1.839072 3297500
-0.113759 -0.005270 1.852412 3297500
-0.112768 -0.021256 1.850517 3297500
-0.112700 -0.046745 1.862951 3297500
-0.113798 -0.035725 1.853369 3297500
-0.113811 -0.045877 1.853688 3297500
-0.113824 -0.056029 1.854007 3297500
-0.120520 -0.042767 1.844959 3297500
-0.113849 -0.076333 1.854644 3297500
-0.113862 -0.086484 1.854963 3297500
-0.114402 -0.093828 1.855909 3297500
-0.117291 -0.105671 1.846546 3297500
-0.109468 -0.100531 1.853505 3297500
-0.111624 -0.130008 1.846289 3297500
-0.113927 -0.137243 1.856558 3297500
-0.118789 -0.160427 1.870272 3297500
-0.122280 -0.005133 1.856440 3297500
-0.122293 -0.015284 1.856759 3297500
-0.122306 -0.025436 1.857078 3297500
-0.122319 -0.035588 1.857397 3297500
-0.129723 -0.043503 1.869110 3297500
-0.122345 -0.055892 1.858035 3297500
-0.123539 -0.054680 1.851160 3297500
-0.122007 -0.068408 1.863396 3297500
-0.122384 -0.086347 1.858992 3297500
-0.122397 -0.096499 1.859310 3297500
-0.122410 -0.106650 1.859629 3297500
-0.122423 -0.116802 1.859948 3297500
-0.122436 -0.126954 1.860267 3297500
-0.122449 -0.137106 1.860586 3297500
-0.121147 -0.129319 1.872509 3297500
-0.150190 -0.003727 1.853010 3297500
-0.130814 -0.015147 1.860787 3297500
-0.128023 -0.028523 1.845734 3297500
-0.122877 -0.032942 1.856651 3297500
-0.130853 -0.045602 1.861744 3297500
-0.134261 -0.083087 1.854182 3297500
-0.138352 -0.060842 1.854276 3297500
-0.128681 -0.100373 1.865689 3297500
-0.130905 -0.086209 1.863020 3297500
-0.151159 -0.090504 1.850474 3297500
-0.130931 -0.106513 1.863658 3297500
-0.116794 -0.132312 1.866922 3297500
-0.130957 -0.126817 1.864295 3297500
-0.130970 -0.136968 1.864614 3297500
-0.130983 -0.147120 1.864933 3297500
-0.139322 -0.004858 1.864497 3297500
-0.111702 -0.029068 1.870321 3297500
-0.139348 -0.025161 1.865134 3297500
-0.139361 -0.035313 1.865453 3297500
-0.139374 -0.045465 1.865772 3297500
-0.147669 -0.053162 1.882565 3297500
-0.139400 -0.065768 1.866410 3297500
-0.139413 -0.075920 1.866729 3297500
-0.139426 -0.086072 1.867048 3297500
-0.128250 -0.084177 1.858142 3297500
-0.139452 -0.106376 1.867686 3297500
-0.139465 -0.116527 1.868005 3297500
-0.139639 -0.113410 1.881904 3297500
-0.139491 -0.136831 1.868642 3297500
-0.139504 -0.146983 1.868961 3297500
-0.147844 -0.004720 1.868525 3297500
-0.157464 -0.013966 1.856766 3297500
-0.147870 -0.025024 1.869163 3297500
-0.147883 -0.035176 1.869482 3297500
-0.147896 -0.045327 1.869800 3297500
-0.147909 -0.055479 1.870119 3297500
-0.144571 -0.065921 1.885311 3297500
-0.146788 -0.073483 1.869389 3297500
-0.148756 -0.094937 1.871288 3297500
-0.154318 -0.096517 1.866509 3297500
-0.147974 -0.106238 1.871714 3297500
-0.143064 -0.120854 1.871354 3297500
-0.147999 -0.126542 1.872352 3297500
-0.148012 -0.136694 1.872671 3297500
-0.148025 -0.146845 1.872990 3297500
-0.156365 -0.004583 1.872553 3297500
-0.161725 -0.011541 1.872043 3297500
-0.155100 -0.024180 1.866693 3297500
-0.151518 -0.043717 1.877227 3297500
-0.156417 -0.045190 1.873829 3297500
-0.149948 -0.065203 1.872893 3297500
-0.144586 -0.081342 1.873648 3297500
-0.156456 -0.075645 1.874785 3297500
-0.163483 -0.094552 1.846755 3297500
-0.156482 -0.095949 1.875423 3297500
-0.165530 -0.113006 1.885290 3297500
-0.159785 -0.127413 1.875030 3297500
-0.156521 -0.126404 1.876380 3297500
-0.156534 -0.136556 1.876699 3297500
-0.156547 -0.146708 1.877018 3297500
-0.174203 -0.007925 1.865739 3297500
-0.148360 -0.002746 1.896006 3297500
-0.164912 -0.024749 1.877219 3297500
-0.153364 -0.041597 1.872568 3297500
-0.164938 -0.045053 1.877857 3297500
-0.164951 -0.055204 1.878176 3297500
-0.146615 -0.057135 1.887643 3297500
-0.161738 -0.081628 1.855892 3297500
-0.164990 -0.085660 1.879132 3297500
-0.165003 -0.095812 1.879451 3297500
-0.165016 -0.105963 1.879770 3297500
-0.160627 -0.129687 1.871652 3297500
-0.169082 -0.106595 1.882988 3297500
-0.149475 -0.140134 1.880129 3297500
-0.171801 -0.138746 1.889688 3297500
-0.183422 -0.005365 1.870163 3297500
-0.173420 -0.014460 1.880928 3297500
-0.174768 0.003371 1.876121 3297500
-0.181084 -0.038434 1.888733 3297500
-0.172657 -0.022793 1.873457 3297500
-0.173472 -0.055067 1.882204 3297500
-0.173485 -0.065219 1.882523 3297500
-0.173498 -0.075370 1.882842 3297500
-0.180487 -0.073013 1.903676 3297500
-0.174035 -0.088950 1.879552 3297500
-0.159765 -0.096257 1.894288 3297500
-0.173550 -0.115978 1.884117 3297500
-0.170917 -0.142205 1.895068 3297500
-0.166474 -0.136350 1.874786 3297500
-0.173589 -0.146433 1.885074 3297500
-0.181929 -0.004170 1.884637 3297500
-0.181942 -0.014322 1.884956 3297500
-0.181955 -0.024474 1.885275 3297500
-0.165656 -0.036571 1.895068 3297500
-0.181981 -0.044778 1.885913 3297500
-0.188976 -0.052024 1.902922 3297500
-0.182007 -0.065081 1.886551 3297500
-0.183122 -0.088519 1.894439 3297500
-0.169581 -0.085868 1.892620 3297500
-0.182046 -0.095537 1.887508 3297500
-0.182059 -0.105688 1.887827 3297500
-0.182072 -0.115840 1.888145 3297500
-0.205313 -0.128555 1.883043 3297500
-0.184339 -0.147321 1.886030 3297500
-0.173818 -0.156706 1.887687 3297500
-0.190450 -0.004033 1.888666 3297500
-0.194037 -0.012878 1.884578 3297500
-0.202656 -0.032585 1.894453 3297500
-0.190489 -0.034488 1.889622 3297500
-0.190502 -0.044640 1.889941 3297500
-0.190515 -0.054792 1.890260 3297500
-0.190528 -0.064944 1.890579 3297500
-0.190541 -0.075096 1.890898 3297500
-0.190554 -0.085247 1.891217 3297500
-0.190567 -0.095399 1.891536 3297500
-0.190580 -0.105551 1.891855 3297500
-0.190593 -0.115703 1.892174 3297500
-0.190606 -0.125855 1.892493 3297500
-0.190619 -0.136006 1.892811 3297500
-0.179871 -0.136846 1.898776 3297500
-0.198971 -0.003896 1.892694 3297500
-0.206041 -0.020964 1.885552 3297500
-0.191614 -0.020824 1.896179 3297500
-0.199010 -0.034351 1.893651 3297500
-0.199023 -0.044503 1.893969 3297500
-0.179741 -0.058363 1.899786 3297500
-0.205139 -0.075124 1.902038 3297500
-0.199062 -0.074958 1.894926 3297500
-0.199075 -0.085110 1.895245 3297500
-0.199088 -0.095262 1.895564 3297500
-0.199101 -0.105414 1.895883 3297500
-0.199114 -0.115565 1.896202 3297500
-0.199127 -0.125717 1.896521 3297500
-0.199140 -0.135869 1.896840 3297500
-0.199153 -0.146021 1.897159 3297500
-0.207493 -0.003758 1.896722 3297500
-0.188327 -0.031625 1.890223 3297500
-0.207519 -0.024062 1.897360 3297500
-0.207532 -0.034214 1.897679 3297500
-0.219326 -0.050498 1.902996 3297500
-0.207557 -0.054517 1.898317 3297500
-0.207570 -0.064669 1.898635 3297500
-0.207583 -0.074821 1.898954 3297500
-0.213184 -0.079307 1.896597 3297500
-0.207609 -0.095124 1.899592 3297500
-0.204417 -0.105584 1.891001 3297500
-0.207635 -0.115428 1.900230 3297500
-0.207648 -0.125580 1.900549 3297500
-0.207661 -0.135732 1.900868 3297500
-0.208789 -0.138240 1.897147 3297500
-0.216014 -0.003621 1.900750 3297500
-0.216027 -0.013772 1.901069 3297500
-0.213628 -0.024347 1.903506 3297500
-0.216053 -0.034076 1.901707 3297500
-0.216066 -0.044228 1.902026 3297500
-0.216079 -0.054380 1.902345 3297500
-0.216092 -0.064531 1.902664 3297500
-0.211924 -0.075807 1.900692 3297500
-0.216118 -0.084835 1.903301 3297500
-0.216131 -0.094987 1.903620 3297500
-0.216144 -0.105139 1.903939 3297500
-0.222438 -0.110990 1.917638 3297500
-0.216170 -0.125442 1.904577 3297500
-0.228061 -0.136784 1.897990 3297500
-0.211003 -0.128055 1.907345 3297500
-0.224535 -0.003483 1.904778 3297500
-0.221651 -0.005585 1.897949 3297500
-0.220387 -0.036135 1.886818 3297500
-0.224574 -0.033939 1.905735 3297500
-0.222516 -0.042028 1.909417 3297500
-0.224600 -0.054242 1.906373 3297500
-0.224613 -0.064394 1.906692 3297500
-0.245157 -0.071995 1.888978 3297500
-0.238726 -0.078335 1.892521 3297500
-0.224652 -0.094849 1.907649 3297500
-0.226181 -0.099698 1.920916 3297500
-0.229207 -0.100177 1.918959 3297500
-0.236387 -0.124938 1.906725 3297500
-0.224704 -0.135457 1.908924 3297500
-0.224717 -0.145608 1.909243 3297500
-0.216093 0.004627 1.913249 3297500
-0.223294 -0.007558 1.908085 3297500
-0.231375 -0.009792 1.903258 3297500
-0.233095 -0.033801 1.909763 3297500
-0.233108 -0.043953 1.910082 3297500
-0.233121 -0.054105 1.910401 3297500
-0.233134 -0.064257 1.910720 3297500
-0.236752 -0.072480 1.920479 3297500
-0.233160 -0.084560 1.911358 3297500
-0.233173 -0.094712 1.911677 3297500
-0.233186 -0.104864 1.911996 3297500
-0.233199 -0.115016 1.912315 3297500
-0.221234 -0.133587 1.898906 3297500
-0.233225 -0.135319 1.912952 3297500
-0.233238 -0.145471 1.913271 3297500
-0.243097 0.006609 1.931634 3297500
-0.231210 -0.021847 1.887530 3297500
-0.247370 -0.011052 1.904544 3297500
-0.241617 -0.033664 1.913791 3297500
-0.241630 -0.043816 1.914110 3297500
-0.234459 -0.055864 1.925779 3297500
-0.241656 -0.064119 1.914748 3297500
-0.232967 -0.074869 1.907152 3297500
-0.261716 -0.095299 1.920216 3297500
-0.232772 -0.079930 1.921921 3297500
-0.250535 -0.116292 1.928029 3297500
-0.241720 -0.114878 1.916343 3297500
-0.241733 -0.125030 1.916662 3297500
-0.241746 -0.135182 1.916981 3297500
-0.256360 -0.141827 1.922344 3297500
-0.250099 -0.003071 1.916863 3297500
-0.250112 -0.013223 1.917182 3297500
-0.251015 -0.011135 1.922874 3297500
-0.230921 -0.037517 1.910210 3297500
-0.261460 -0.035310 1.923186 3297500
-0.250184 -0.054286 1.936712 3297500
-0.250177 -0.063982 1.918776 3297500
-0.250190 -0.074134 1.919095 3297500
-0.271530 -0.084636 1.919007 3297500
-0.250216 -0.094437 1.919733 3297500
-0.245127 -0.095133 1.931210 3297500
-0.250242 -0.114741 1.920371 3297500
-0.250255 -0.124893 1.920690 3297500
-0.263448 -0.135765 1.912490 3297500
-0.250281 -0.145196 1.921328 3297500
-0.258620 -0.002934 1.920891 3297500
-0.253784 -0.002248 1.935264 3297500
-0.258646 -0.023237 1.921529 3297500
-0.258659 -0.033389 1.921848 3297500
-0.258672 -0.043541 1.922167 3297500
-0.278627 -0.027291 1.922499 3297500
-0.258698 -0.063844 1.922804 3297500
-0.256314 -0.061676 1.906359 3297500
-0.258799 -0.099471 1.931861 3297500
-0.258737 -0.094300 1.923761 3297500
-0.263653 -0.083650 1.917142 3297500
-0.247904 -0.114932 1.920128 3297500
-0.257774 -0.137186 1.909060 3297500
-0.258789 -0.134907 1.925037 3297500
-0.258802 -0.145059 1.925356 3297500
-0.271457 0.003893 1.913128 3297500
-0.282569 -0.014035 1.919988 3297500
-0.271095 -0.020118 1.931732 3297500
-0.272451 -0.036206 1.903989 3297500
-0.274750 -0.045682 1.926178 3297500
-0.271681 -0.063905 1.905804 3297500
-0.245756 -0.060456 1.914959 3297500
-0.267232 -0.073859 1.927152 3297500
-0.265394 -0.092024 1.912165 3297500
-0.265725 -0.100860 1.933581 3297500
-0.261711 -0.104165 1.927928 3297500
-0.267284 -0.114466 1.928427 3297500
-0.267297 -0.124618 1.928746 3297500
-0.277722 -0.128649 1.950193 3297500
-0.263309 -0.141530 1.942224 3297500
-0.275663 -0.002659 1.928947 3297500
-0.275676 -0.012810 1.929266 3297500
-0.275689 -0.022962 1.929585 3297500
-0.251151 -0.038433 1.935523 3297500
-0.275715 -0.043266 1.930223 3297500
-0.275728 -0.053418 1.930542 3297500
-0.268976 -0.055586 1.928320 3297500
-0.275754 -0.073721 1.931180 3297500
-0.275767 -0.083873 1.931499 3297500
-0.275780 -0.094025 1.931818 3297500
-0.275793 -0.104177 1.932136 3297500
-0.275806 -0.114328 1.932455 3297500
-0.268887 -0.119691 1.917295 3297500
-0.267706 -0.134478 1.941075 3297500
-0.281198 -0.145767 1.919068 3297500
-0.284184 -0.002521 1.932976 3297500
-0.284197 -0.012673 1.933294 3297500
-0.283304 -0.014659 1.920336 3297500
-0.290482 -0.038525 1.936806 3297500
-0.281514 -0.050269 1.933604 3297500
-0.284249 -0.053280 1.934570 3297500
-0.284262 -0.063432 1.934889 3297500
-0.284011 -0.067882 1.934489 3297500
-0.289294 -0.094436 1.931736 3297500
-0.283853 -0.086573 1.938169 3297500
-0.303389 -0.107136 1.919585 3297500
-0.287293 -0.116204 1.950420 3297500
-0.284340 -0.124343 1.936802 3297500
-0.284353 -0.134495 1.937121 3297500
-0.284366 -0.144646 1.937440 3297500
-0.096898 -0.147670 1.848821 3297500
-0.105326 -0.154072 1.831855 3297500
-0.105458 -0.148227 1.830732 3297500
-0.109738 -0.148506 1.821687 3297500
-0.120004 -0.156206 1.813659 3297500
-0.118298 -0.149063 1.803599 3297500
-0.110373 -0.161799 1.783822 3297500
-0.126858 -0.149621 1.785510 3297500
-0.131137 -0.149899 1.776465 3297500
-0.135417 -0.150178 1.767421 3297500
-0.152613 -0.155571 1.753991 3297500
-0.143977 -0.150735 1.749332 3297500
-0.164304 -0.151566 1.722065 3297500
-0.155657 -0.157773 1.728960 3297500
-0.158724 -0.161473 1.711473 3297500
-0.167069 -0.154740 1.717379 3297500
-0.165377 -0.152128 1.704110 3297500
-0.117494 -0.143391 1.847946 3297500
-0.109699 -0.147811 1.843804 3297500
-0.113979 -0.148090 1.834760 3297500
-0.118259 -0.148369 1.825715 3297500
-0.148167 -0.120602 1.837727 3297500
-0.136387 -0.135509 1.807636 3297500
-0.128347 -0.144122 1.785326 3297500
-0.135379 -0.149483 1.789538 3297500
-0.132554 -0.161983 1.781623 3297500
-0.143939 -0.150040 1.771449 3297500
-0.148219 -0.150319 1.762405 3297500
-0.140028 -0.166814 1.754331 3297500
-0.159913 -0.147083 1.742524 3297500
-0.162424 -0.143975 1.732532 3297500
-0.156591 -0.156625 1.714738 3297500
-0.189584 -0.146087 1.714500 3297500
-0.159282 -0.161435 1.707594 3297500
-0.117339 -0.151956 1.860432 3297500
-0.120165 -0.157733 1.843487 3297500
-0.127197 -0.145050 1.840584 3297500
-0.135886 -0.141972 1.847739 3297500
-0.133227 -0.158539 1.818238 3297500
-0.150122 -0.143271 1.808194 3297500
-0.139620 -0.149067 1.802610 3297500
-0.154838 -0.153008 1.792801 3297500
-0.155490 -0.155580 1.777561 3297500
-0.152460 -0.149903 1.775477 3297500
-0.160354 -0.172315 1.776813 3297500
-0.172603 -0.156285 1.759327 3297500
-0.165300 -0.150739 1.748344 3297500
-0.169580 -0.151018 1.739300 3297500
-0.164587 -0.154182 1.722669 3297500
-0.178140 -0.151575 1.721211 3297500
-0.185287 -0.156965 1.711775 3297500
-0.112561 -0.140370 1.863401 3297500
-0.126742 -0.147536 1.851861 3297500
-0.131022 -0.147815 1.842816 3297500
-0.118617 -0.124691 1.829651 3297500
-0.150576 -0.152059 1.827796 3297500
-0.143861 -0.148651 1.815683 3297500
-0.148141 -0.148930 1.806639 3297500
-0.152421 -0.149208 1.797594 3297500
-0.156701 -0.149487 1.788550 3297500
-0.160981 -0.149766 1.779505 3297500
-0.182204 -0.154005 1.779965 3297500
-0.169541 -0.150323 1.761417 3297500
-0.165854 -0.159006 1.757791 3297500
-0.174942 -0.138087 1.750638 3297500
-0.182381 -0.151159 1.734284 3297500
-0.185670 -0.158882 1.733755 3297500
-0.191859 -0.141601 1.719808 3297500
-0.130983 -0.147120 1.864933 3297500
-0.123140 -0.152982 1.856744 3297500
-0.151901 -0.138306 1.846180 3297500
-0.143823 -0.147956 1.837800 3297500
-0.146753 -0.133569 1.846454 3297500
-0.157533 -0.167071 1.803952 3297500
-0.157468 -0.159367 1.824316 3297500
-0.160943 -0.149071 1.801622 3297500
-0.165223 -0.149349 1.792578 3297500
-0.168891 -0.151887 1.773926 3297500
-0.183025 -0.160546 1.773755 3297500
-0.184067 -0.164494 1.773642 3297500
-0.169236 -0.152452 1.774159 3297500
-0.186622 -0.150743 1.747356 3297500
-0.190902 -0.151021 1.738312 3297500
-0.195182 -0.151300 1.729267 3297500
-0.184193 -0.152643 1.723533 3297500
-0.139504 -0.146983 1.868961 3297500
-0.145347 -0.147523 1.862316 3297500
-0.148064 -0.147540 1.850873 3297500
-0.163563 -0.148046 1.844477 3297500
-0.156624 -0.148097 1.832784 3297500
-0.145150 -0.156342 1.824352 3297500
-0.152490 -0.169710 1.801285 3297500
-0.141691 -0.141429 1.793968 3297500
-0.186077 -0.139236 1.780665 3297500
-0.178024 -0.149491 1.787562 3297500
-0.181031 -0.162482 1.772153 3297500
-0.186584 -0.150048 1.769473 3297500
-0.190864 -0.150327 1.760429 3297500
-0.200623 -0.149070 1.758064 3297500
-0.199424 -0.150884 1.742340 3297500
-0.203704 -0.151163 1.733295 3297500
-0.207983 -0.151441 1.724251 3297500
-0.148025 -0.146845 1.872990 3297500
-0.144086 -0.140432 1.856842 3297500
-0.164216 -0.162371 1.851574 3297500
-0.154207 -0.146301 1.845406 3297500
-0.165145 -0.147960 1.836812 3297500
-0.174827 -0.148129 1.830360 3297500
-0.173705 -0.148517 1.818723 3297500
-0.177985 -0.148796 1.809679 3297500
-0.182265 -0.149075 1.800634 3297500
-0.202804 -0.142322 1.782650 3297500
-0.208599 -0.139784 1.793797 3297500
-0.195105 -0.149910 1.773501 3297500
-0.199385 -0.150189 1.764457 3297500
-0.203665 -0.150468 1.755412 3297500
-0.208674 -0.142367 1.739686 3297500
-0.212225 -0.151025 1.737324 3297500
-0.216505 -0.151304 1.728279 3297500
-0.174724 -0.154305 1.869401 3297500
-0.180747 -0.139663 1.873899 3297500
-0.158406 -0.154326 1.857767 3297500
-0.169387 -0.147544 1.849885 3297500
-0.173667 -0.147823 1.840840 3297500
-0.178729 -0.137184 1.826713 3297500
-0.178182 -0.152541 1.825413 3297500
-0.186506 -0.148658 1.813707 3297500
-0.190786 -0.148937 1.804663 3297500
-0.195811 -0.149835 1.796567 3297500
-0.199346 -0.149494 1.786574 3297500
-0.190042 -0.147595 1.779293 3297500
-0.207906 -0.150052 1.768485 3297500
-0.225943 -0.142250 1.763941 3297500
-0.238967 -0.154863 1.756720 3297500
-0.220746 -0.150888 1.741352 3297500
-0.225026 -0.151166 1.732307 3297500
-0.168144 -0.159223 1.873518 3297500
-0.169348 -0.146849 1.872001 3297500
-0.173628 -0.147128 1.862957 3297500
-0.177908 -0.147406 1.853913 3297500
-0.182188 -0.147685 1.844868 3297500
-0.173198 -0.163025 1.835462 3297500
-0.181375 -0.154091 1.829261 3297500
-0.193154 -0.144440 1.817195 3297500
-0.211690 -0.154874 1.803333 3297500
-0.203588 -0.149078 1.799646 3297500
-0.207868 -0.149357 1.790602 3297500
-0.212148 -0.149636 1.781558 3297500
-0.216427 -0.149914 1.772513 3297500
-0.220707 -0.150193 1.763469 3297500
-0.224987 -0.150472 1.754424 3297500
-0.217215 -0.143732 1.747313 3297500
-0.246478 -0.163253 1.718114 3297500
-0.184637 -0.138619 1.885913 3297500
-0.177869 -0.146712 1.876030 3297500
-0.182149 -0.146990 1.866985 3297500
-0.183277 -0.155543 1.855158 3297500
-0.190709 -0.147548 1.848896 3297500
-0.194989 -0.147826 1.839852 3297500
-0.210771 -0.154790 1.832386 3297500
-0.203127 -0.149510 1.806837 3297500
-0.207829 -0.148662 1.812719 3297500
-0.220929 -0.145147 1.821221 3297500
-0.208774 -0.146220 1.788481 3297500
-0.220669 -0.149498 1.785586 3297500
-0.213031 -0.158047 1.781603 3297500
-0.227087 -0.145111 1.760833 3297500
-0.236810 -0.161680 1.766784 3297500
-0.230621 -0.149796 1.751499 3297500
-0.254713 -0.138366 1.741966 3297500
-0.182111 -0.146296 1.889102 3297500
-0.174201 -0.138702 1.883717 3297500
-0.190670 -0.146853 1.871013 3297500
-0.194950 -0.147132 1.861969 3297500
-0.199230 -0.147410 1.852925 3297500
-0.223644 -0.153569 1.848388 3297500
-0.207790 -0.147967 1.834836 3297500
-0.224505 -0.147231 1.804857 3297500
-0.216350 -0.148525 1.816747 3297500
-0.230074 -0.141622 1.814805 3297500
-0.226650 -0.147844 1.792342 3297500
-0.229190 -0.149361 1.789614 3297500
-0.233470 -0.149639 1.780569 3297500
-0.239923 -0.140713 1.779938 3297500
-0.237762 -0.158755 1.780545 3297500
-0.246310 -0.150475 1.753436 3297500
-0.256627 -0.153128 1.747909 3297500
-0.187838 -0.148061 1.890419 3297500
-0.198669 -0.158435 1.883647 3297500
-0.211443 -0.153593 1.878764 3297500
-0.200021 -0.148468 1.873859 3297500
-0.209084 -0.127019 1.858925 3297500
-0.234897 -0.153979 1.820607 3297500
-0.216312 -0.147830 1.838864 3297500
-0.220591 -0.148109 1.829820 3297500
-0.224871 -0.148387 1.820775 3297500
-0.229151 -0.148666 1.811731 3297500
-0.220135 -0.162438 1.806236 3297500
-0.233157 -0.138373 1.795460 3297500
-0.241991 -0.149502 1.784598 3297500
-0.248966 -0.142467 1.773323 3297500
-0.250551 -0.150059 1.766509 3297500
-0.266673 -0.147087 1.767287 3297500
-0.256790 -0.149268 1.750356 3297500
-0.199153 -0.146021 1.897159 3297500
-0.199833 -0.162000 1.893125 3297500
-0.216348 -0.132126 1.879686 3297500
-0.211993 -0.146857 1.870025 3297500
-0.221333 -0.134052 1.867526 3297500
-0.220553 -0.147414 1.851937 3297500
-0.231663 -0.144237 1.838664 3297500
-0.215734 -0.159101 1.835113 3297500
-0.233393 -0.148250 1.824803 3297500
-0.244629 -0.153791 1.824717 3297500
-0.241953 -0.148807 1.806715 3297500
-0.259948 -0.163396 1.794594 3297500
-0.250513 -0.149365 1.788626 3297500
-0.253410 -0.140234 1.778712 3297500
-0.245273 -0.151269 1.780437 3297500
-0.280231 -0.159744 1.749360 3297500
-0.277996 -0.145459 1.757814 3297500
-0.212039 -0.141509 1.888897 3297500
-0.211954 -0.146162 1.892142 3297500
-0.216234 -0.146441 1.883098 3297500
-0.220514 -0.146719 1.874054 3297500
-0.224794 -0.146998 1.865009 3297500
-0.216114 -0.149972 1.863659 3297500
-0.237168 -0.148711 1.857989 3297500
-0.223905 -0.161333 1.844159 3297500
-0.240230 -0.145277 1.825796 3297500
-0.241814 -0.165127 1.817162 3297500
-0.250474 -0.148670 1.810743 3297500
-0.254754 -0.148948 1.801698 3297500
-0.259034 -0.149227 1.792654 3297500
-0.286331 -0.148821 1.781815 3297500
-0.263733 -0.145936 1.759142 3297500
-0.263718 -0.171968 1.765921 3297500
-0.275115 -0.158868 1.756370 3297500
-0.216196 -0.145746 1.905215 3297500
-0.220476 -0.146025 1.896171 3297500
-0.224756 -0.146303 1.887126 3297500
-0.214500 -0.144320 1.882096 3297500
-0.233315 -0.146860 1.869037 3297500
-0.232479 -0.159294 1.869835 3297500
-0.241875 -0.147418 1.850949 3297500
-0.246155 -0.147696 1.841904 3297500
-0.239853 -0.147574 1.827518 3297500
-0.254715 -0.148254 1.823815 3297500
-0.258995 -0.148532 1.814771 3297500
-0.269779 -0.148195 1.797189 3297500
-0.276926 -0.144109 1.772850 3297500
-0.271835 -0.149368 1.787638 3297500
-0.276115 -0.149647 1.778593 3297500
-0.280395 -0.149926 1.769549 3297500
-0.284379 -0.151390 1.770826 3297500
-0.231614 -0.139221 1.913747 3297500
-0.228997 -0.145887 1.900199 3297500
-0.225764 -0.147199 1.874443 3297500
-0.241183 -0.137881 1.882814 3297500
-0.241837 -0.146723 1.873065 3297500
-0.244751 -0.140537 1.872896 3297500
-0.258517 -0.147797 1.860725 3297500
-0.254677 -0.147559 1.845932 3297500
-0.258957 -0.147838 1.836888 3297500
-0.263236 -0.148116 1.827844 3297500
-0.273298 -0.141787 1.840068 3297500
-0.271796 -0.148674 1.809755 3297500
-0.280914 -0.162157 1.811264 3297500
-0.266034 -0.146117 1.785291 3297500
-0.273647 -0.133960 1.785727 3297500
-0.277974 -0.156983 1.761495 3297500
-0.276495 -0.149778 1.751996 3297500
-0.233238 -0.145471 1.913271 3297500
-0.237518 -0.145750 1.904227 3297500
-0.241798 -0.146028 1.895182 3297500
-0.254932 -0.129617 1.888326 3297500
-0.250358 -0.146586 1.877094 3297500
-0.257115 -0.139609 1.872817 3297500
-0.258918 -0.147143 1.859005 3297500
-0.263198 -0.147422 1.849960 3297500
-0.267478 -0.147700 1.840916 3297500
-0.271758 -0.147979 1.831872 3297500
-0.276038 -0.148257 1.822827 3297500
-0.280318 -0.148536 1.813783 3297500
-0.282318 -0.136501 1.797903 3297500
-0.288878 -0.149093 1.795694 3297500
-0.309890 -0.155586 1.797461 3297500
-0.297437 -0.149651 1.777605 3297500
-0.301717 -0.149929 1.768561 3297500
-0.244718 -0.146501 1.903470 3297500
-0.246039 -0.145612 1.908255 3297500
-0.250319 -0.145891 1.899211 3297500
-0.252930 -0.130967 1.880628 3297500
-0.258879 -0.146448 1.881122 3297500
-0.274909 -0.157654 1.878458 3297500
-0.262384 -0.158893 1.860726 3297500
-0.268481 -0.155940 1.854674 3297500
-0.275999 -0.147563 1.844944 3297500
-0.294452 -0.146704 1.831110 3297500
-0.287504 -0.137974 1.838111 3297500
-0.281430 -0.154738 1.813566 3297500
-0.293119 -0.148677 1.808767 3297500
-0.297399 -0.148956 1.799722 3297500
-0.301679 -0.149235 1.790678 3297500
-0.305959 -0.149513 1.781634 3297500
-0.310239 -0.149792 1.772589 3297500
-0.250281 -0.145196 1.921328 3297500
-0.257140 -0.144710 1.919168 3297500
-0.258841 -0.145753 1.903239 3297500
-0.270670 -0.158625 1.908763 3297500
-0.258970 -0.151609 1.875915 3297500
-0.273826 -0.141199 1.869306 3297500
-0.275960 -0.146868 1.867061 3297500
-0.280240 -0.147147 1.858017 3297500
-0.293110 -0.132373 1.842241 3297500
-0.296319 -0.165718 1.840197 3297500
-0.293080 -0.147983 1.830884 3297500
-0.305802 -0.143997 1.815075 3297500
-0.301640 -0.148540 1.812795 3297500
-0.305920 -0.148819 1.803750 3297500
-0.316610 -0.154025 1.791148 3297500
-0.313391 -0.141316 1.786460 3297500
-0.324038 -0.139561 1.768693 3297500
-0.258802 -0.145059 1.925356 3297500
-0.259874 -0.150782 1.896632 3297500
-0.267362 -0.145616 1.907267 3297500
-0.253438 -0.154486 1.897662 3297500
-0.275922 -0.146173 1.889178 3297500
-0.280202 -0.146452 1.880134 3297500
-0.284482 -0.146731 1.871089 3297500
-0.296181 -0.156728 1.855309 3297500
-0.293042 -0.147288 1.853001 3297500
-0.297322 -0.147566 1.843956 3297500
-0.296176 -0.138305 1.826659 3297500
-0.305881 -0.148124 1.825867 3297500
-0.309444 -0.141428 1.804712 3297500
-0.314441 -0.148681 1.807779 3297500
-0.318721 -0.148960 1.798734 3297500
-0.323001 -0.149238 1.789690 3297500
-0.306846 -0.158533 1.766593 3297500
-0.267323 -0.144921 1.929384 3297500
-0.267142 -0.131241 1.926146 3297500
-0.275883 -0.145479 1.911295 3297500
-0.276872 -0.148669 1.896301 3297500
-0.301119 -0.138313 1.913310 3297500
-0.288723 -0.146314 1.884162 3297500
-0.300064 -0.140468 1.885307 3297500
-0.297283 -0.146872 1.866073 3297500
-0.309855 -0.145828 1.838897 3297500
-0.305843 -0.147429 1.847984 3297500
-0.310123 -0.147708 1.838940 3297500
-0.309288 -0.145370 1.819354 3297500
-0.318683 -0.148265 1.820851 3297500
-0.323046 -0.155713 1.798645 3297500
-0.327243 -0.148822 1.802762 3297500
-0.331523 -0.149101 1.793718 3297500
-0.348255 -0.136309 1.795520 3297500
-0.262090 -0.137650 1.942020 3297500
-0.280124 -0.145062 1.924368 3297500
-0.293838 -0.138576 1.909060 3297500
-0.302877 -0.149868 1.882232 3297500
-0.296413 -0.140144 1.883687 3297500
-0.297244 -0.146177 1.888190 3297500
-0.291188 -0.136734 1.879269 3297500
-0.321240 -0.150323 1.862373 3297500
-0.318526 -0.148499 1.858065 3297500
-0.314364 -0.147292 1.852013 3297500
-0.318644 -0.147570 1.842968 3297500
-0.303127 -0.144015 1.844639 3297500
-0.327204 -0.148128 1.824879 3297500
-0.331484 -0.148406 1.815835 3297500
-0.345071 -0.153405 1.806550 3297500
-0.349277 -0.155232 1.807414 3297500
-0.361814 -0.157707 1.779790 3297500
-0.284366 -0.144646 1.937440 3297500
-0.280775 -0.144557 1.936650 3297500
-0.292926 -0.145204 1.919351 3297500
-0.297206 -0.145482 1.910307 3297500
-0.301486 -0.145761 1.901263 3297500
-0.305766 -0.146040 1.892218 3297500
-0.310046 -0.146318 1.883174 3297500
-0.311279 -0.142441 1.860651 3297500
-0.319117 -0.147458 1.873734 3297500
-0.322885 -0.147154 1.856041 3297500
-0.348169 -0.159860 1.850296 3297500
-0.328102 -0.137118 1.832291 3297500
-0.343585 -0.144411 1.828882 3297500
-0.340005 -0.148269 1.819863 3297500
-0.340570 -0.163943 1.818551 3297500
-0.350061 -0.151581 1.809086 3297500
-0.365759 -0.149369 1.814680 3297500
-0.099684 0.002817 1.855998 3297500
-0.101045 0.012831 1.830567 3297500
-0.105276 -0.006102 1.826267 3297500
-0.109556 -0.006381 1.817223 3297500
-0.095494 -0.004334 1.804887 3297500
-0.118116 -0.006938 1.799134 3297500
-0.119351 -0.020956 1.795996 3297500
-0.126676 -0.007495 1.781045 3297500
-0.148477 0.008763 1.781287 3297500
-0.135602 -0.014417 1.764004 3297500
-0.139516 -0.008331 1.753912 3297500
-0.143796 -0.008610 1.744867 3297500
-0.171908 0.003168 1.733800 3297500
-0.136441 -0.002474 1.730946 3297500
-0.156635 -0.009446 1.717734 3297500
-0.169093 -0.018356 1.709760 3297500
-0.165195 -0.010003 1.699645 3297500
-0.105132 0.002005 1.854617 3297500
-0.109517 -0.005686 1.839340 3297500
-0.122954 -0.017373 1.827503 3297500
-0.118077 -0.006243 1.821251 3297500
-0.113595 -0.010080 1.820931 3297500
-0.126637 -0.006801 1.803162 3297500
