# .PCD v.7 - Point Cloud Data file format
VERSION .7
FIELDS x y z rgb
SIZE 4 4 4 4
TYPE F F F U
COUNT 1 1 1 1
WIDTH 1292
HEIGHT 1
VIEWPOINT 0 0 0 1 0 0 0
POINTS 1292
DATA ascii
-0.308132 0.166558 1.890911 15119390
-0.326632 0.155011 1.875912 15119390
-0.300865 0.143038 1.873827 15119390
-0.309153 0.143327 1.873115 15119390
-0.309493 0.135584 1.867183 15119390
-0.309833 0.127840 1.861251 15119390
-0.310174 0.120097 1.855319 15119390
-0.303449 0.113471 1.829289 15119390
-0.320933 0.107987 1.854053 15119390
-0.311194 0.096866 1.837523 15119390
-0.311535 0.089123 1.831591 15119390
-0.319352 0.084436 1.823836 15119390
-0.320441 0.075906 1.823750 15119390
-0.312555 0.065892 1.813795 15119390
-0.312896 0.058149 1.807863 15119390
-0.309618 0.233918 1.931544 15119390
-0.312273 0.239957 1.918712 15119390
-0.320633 0.213791 1.931475 15119390
-0.310639 0.210687 1.913748 15119390
-0.306275 0.198918 1.895959 15119390
-0.311320 0.195200 1.901884 15119390
-0.331355 0.195386 1.892557 15119390
-0.313664 0.185727 1.879428 15119390
-0.312340 0.171970 1.884088 15119390
-0.312681 0.164226 1.878156 15119390
-0.313021 0.156483 1.872224 15119390
-0.311667 0.146247 1.848653 15119390
-0.301359 0.121731 1.864446 15119390
-0.304606 0.144866 1.873395 15119390
-0.314382 0.125508 1.848496 15119390
-0.314722 0.117765 1.842564 15119390
-0.313775 0.121751 1.829907 15119390
-0.318591 0.098777 1.838325 15119390
-0.315743 0.094534 1.824768 15119390
-0.316083 0.086791 1.818836 15119390
-0.325806 0.086160 1.815399 15119390
-0.323908 0.072645 1.788033 15119390
-0.317104 0.063560 1.801040 15119390
-0.313827 0.239330 1.924722 15119390
-0.314167 0.231586 1.918790 15119390
-0.314507 0.223842 1.912858 15119390
-0.291268 0.212597 1.928381 15119390
-0.315187 0.208355 1.900993 15119390
-0.315528 0.200612 1.895061 15119390
-0.315868 0.192868 1.889129 15119390
-0.316208 0.185125 1.883197 15119390
-0.310752 0.166379 1.899947 15119390
-0.316889 0.169638 1.871333 15119390
-0.317229 0.161894 1.865401 15119390
-0.325469 0.160938 1.841526 15119390
-0.317909 0.146407 1.853537 15119390
-0.318250 0.138664 1.847605 15119390
-0.317141 0.129178 1.838715 15119390
-0.318930 0.123177 1.835741 15119390
-0.308690 0.108009 1.843725 15119390
-0.319611 0.107690 1.823877 15119390
-0.319951 0.099946 1.817945 15119390
-0.320030 0.086797 1.796973 15119390
-0.338213 0.069758 1.794208 15119390
-0.320972 0.076715 1.800149 15119390
-0.321312 0.068972 1.794217 15119390
-0.318035 0.244741 1.917899 15119390
-0.331535 0.245157 1.894459 15119390
-0.309290 0.210430 1.897724 15119390
-0.319055 0.221511 1.900103 15119390
-0.319396 0.213767 1.894171 15119390
-0.319736 0.206024 1.888239 15119390
-0.313779 0.185121 1.885216 15119390
-0.320416 0.190536 1.876374 15119390
-0.323820 0.185965 1.885793 15119390
-0.321097 0.175049 1.864510 15119390
-0.321437 0.167306 1.858578 15119390
-0.317874 0.149973 1.865655 15119390
-0.316151 0.161623 1.843686 15119390
-0.322458 0.144075 1.840782 15119390
-0.322798 0.136332 1.834850 15119390
-0.320875 0.144548 1.826830 15119390
-0.328063 0.117726 1.833837 15119390
-0.323819 0.113101 1.817054 15119390
-0.324159 0.105358 1.811122 15119390
-0.324499 0.097614 1.805190 15119390
-0.323062 0.101384 1.792482 15119390
-0.325180 0.082127 1.793326 15119390
-0.328337 0.065130 1.790714 15119390
-0.322243 0.250153 1.911076 15119390
-0.322583 0.242409 1.905144 15119390
-0.322923 0.234666 1.899212 15119390
-0.323264 0.226922 1.893280 15119390
-0.323100 0.218836 1.895346 15119390
-0.334858 0.227629 1.886324 15119390
-0.332784 0.205471 1.899511 15119390
-0.324625 0.195948 1.869552 15119390
-0.324965 0.188205 1.863620 15119390
-0.325305 0.180461 1.857688 15119390
-0.333333 0.180466 1.857117 15119390
-0.317948 0.176674 1.862983 15119390
-0.326326 0.157231 1.839891 15119390
-0.325227 0.147962 1.840589 15119390
-0.327006 0.141743 1.828027 15119390
-0.327347 0.134000 1.822095 15119390
-0.327687 0.126256 1.816163 15119390
-0.322284 0.101605 1.802502 15119390
-0.340314 0.105921 1.810803 15119390
-0.328708 0.103026 1.798367 15119390
-0.329048 0.095282 1.792435 15119390
-0.329388 0.087539 1.786503 15119390
-0.329728 0.079795 1.780571 15119390
-0.325551 0.271801 1.907270 15119390
-0.336647 0.235587 1.897608 15119390
-0.329445 0.250410 1.888497 15119390
-0.327472 0.232334 1.886457 15119390
-0.327812 0.224590 1.880525 15119390
-0.309227 0.217419 1.883909 15119390
-0.315209 0.195522 1.866996 15119390
-0.326152 0.196547 1.850141 15119390
-0.346059 0.184139 1.857896 15119390
-0.329513 0.185873 1.850865 15119390
-0.343582 0.178860 1.843657 15119390
-0.330194 0.170386 1.839001 15119390
-0.320908 0.168522 1.826429 15119390
-0.326958 0.147855 1.835301 15119390
-0.332899 0.145016 1.831397 15119390
-0.331555 0.139412 1.815272 15119390
-0.318420 0.129708 1.825241 15119390
-0.332235 0.123925 1.803408 15119390
-0.335345 0.124386 1.790469 15119390
-0.346928 0.110544 1.787587 15119390
-0.333256 0.100694 1.785612 15119390
-0.333596 0.092950 1.779680 15119390
-0.316630 0.070438 1.770964 15119390
-0.339601 0.264582 1.901586 15119390
-0.339607 0.255358 1.878466 15119390
-0.331340 0.245489 1.885566 15119390
-0.333524 0.248497 1.880126 15119390
-0.332020 0.230002 1.873702 15119390
-0.322497 0.214159 1.850150 15119390
-0.342203 0.205932 1.855255 15119390
-0.333041 0.206771 1.855906 15119390
-0.325743 0.208162 1.861657 15119390
-0.354477 0.192520 1.842081 15119390
-0.330287 0.171512 1.840647 15119390
-0.332504 0.207660 1.839628 15119390
-0.331352 0.180144 1.817724 15119390
-0.335082 0.160310 1.820314 15119390
-0.335423 0.152567 1.814382 15119390
-0.335763 0.144823 1.808450 15119390
-0.346225 0.140990 1.796982 15119390
-0.336443 0.129336 1.796586 15119390
-0.336784 0.121593 1.790653 15119390
-0.333492 0.098788 1.790061 15119390
-0.304100 0.096189 1.783041 15119390
-0.326388 0.082324 1.779343 15119390
-0.319612 0.090564 1.746587 15119390
-0.334867 0.266388 1.890607 15119390
-0.335208 0.258644 1.884675 15119390
-0.335204 0.275872 1.870448 15119390
-0.325404 0.232658 1.860669 15119390
-0.336228 0.235414 1.866879 15119390
-0.336990 0.216723 1.870969 15119390
-0.333601 0.204076 1.855633 15119390
-0.337249 0.212183 1.849083 15119390
-0.336381 0.203468 1.840864 15119390
-0.334133 0.188695 1.829042 15119390
-0.340097 0.197354 1.847890 15119390
-0.345062 0.185579 1.821678 15119390
-0.336517 0.169916 1.800002 15119390
-0.338026 0.156591 1.816603 15119390
-0.337767 0.169686 1.798139 15119390
-0.338711 0.162307 1.793472 15119390
-0.340311 0.142491 1.795695 15119390
-0.349187 0.142367 1.778044 15119390
-0.340992 0.127004 1.783831 15119390
-0.341332 0.119261 1.777899 15119390
-0.360153 0.107793 1.761169 15119390
-0.336946 0.101877 1.770424 15119390
-0.349234 0.087818 1.757316 15119390
-0.339076 0.271799 1.883784 15119390
-0.339416 0.264056 1.877852 15119390
-0.337984 0.259122 1.860589 15119390
-0.340096 0.248569 1.865988 15119390
-0.340437 0.240825 1.860056 15119390
-0.335733 0.217512 1.841518 15119390
-0.346730 0.220708 1.849285 15119390
-0.341457 0.217595 1.842260 15119390
-0.341798 0.209851 1.836328 15119390
-0.329943 0.192940 1.816682 15119390
-0.327798 0.197824 1.832321 15119390
-0.342818 0.186621 1.818532 15119390
-0.343749 0.171088 1.796408 15119390
-0.343499 0.171134 1.806668 15119390
-0.343839 0.163390 1.800736 15119390
-0.330056 0.147887 1.807954 15119390
-0.344519 0.147903 1.788872 15119390
-0.332411 0.134789 1.780397 15119390
-0.345200 0.132416 1.777008 15119390
-0.345540 0.124672 1.771076 15119390
-0.345880 0.116929 1.765144 15119390
-0.358802 0.134837 1.753646 15119390
-0.343636 0.109673 1.747918 15119390
-0.343284 0.277211 1.876962 15119390
-0.343624 0.269468 1.871030 15119390
-0.338890 0.280119 1.865755 15119390
-0.344304 0.253981 1.859165 15119390
-0.333433 0.263687 1.852369 15119390
-0.349045 0.231719 1.837661 15119390
-0.345325 0.230750 1.841369 15119390
-0.341812 0.224528 1.833319 15119390
-0.346006 0.215263 1.829505 15119390
-0.346346 0.207519 1.823573 15119390
-0.346686 0.199776 1.817641 15119390
-0.347026 0.192032 1.811709 15119390
-0.335458 0.200962 1.809162 15119390
-0.358283 0.174281 1.792625 15119390
-0.364957 0.163390 1.803350 15119390
-0.356633 0.161791 1.784496 15119390
-0.353232 0.162087 1.800835 15119390
-0.344321 0.147743 1.754327 15119390
-0.349408 0.137828 1.770185 15119390
-0.349748 0.130084 1.764253 15119390
-0.385616 0.104625 1.752590 15119390
-0.350429 0.114597 1.752389 15119390
-0.350210 0.116784 1.758284 15119390
-0.376419 0.277228 1.864833 15119390
-0.347832 0.274879 1.864207 15119390
-0.348172 0.267136 1.858275 15119390
-0.360714 0.251903 1.842515 15119390
-0.348853 0.251649 1.846411 15119390
-0.350710 0.227244 1.838803 15119390
-0.345975 0.248799 1.838714 15119390
-0.349874 0.228418 1.828614 15119390
-0.350214 0.220675 1.822682 15119390
-0.350554 0.212931 1.816750 15119390
-0.371601 0.188404 1.809712 15119390
-0.361401 0.202465 1.810148 15119390
-0.351575 0.189700 1.798954 15119390
-0.355703 0.187216 1.794854 15119390
-0.352255 0.174213 1.787090 15119390
-0.352596 0.166470 1.781158 15119390
-0.344351 0.153632 1.769030 15119390
-0.353276 0.150983 1.769294 15119390
-0.358752 0.117895 1.752590 15119390
-0.353957 0.135496 1.757430 15119390
-0.354297 0.127752 1.751498 15119390
-0.356653 0.106587 1.728794 15119390
-0.354977 0.112265 1.739634 15119390
-0.335871 0.296298 1.864790 15119390
-0.378690 0.276163 1.859668 15119390
-0.352381 0.272547 1.851452 15119390
-0.352721 0.264804 1.845520 15119390
-0.353061 0.257060 1.839588 15119390
-0.358558 0.253960 1.826784 15119390
-0.353742 0.241573 1.827724 15119390
-0.354082 0.233830 1.821792 15119390
-0.356076 0.217264 1.833769 15119390
-0.368527 0.208416 1.803605 15119390
-0.347236 0.209903 1.797177 15119390
-0.334693 0.206921 1.797284 15119390
-0.355783 0.195112 1.792131 15119390
-0.358228 0.172329 1.790609 15119390
-0.371061 0.202978 1.786716 15119390
-0.369635 0.175302 1.766945 15119390
-0.374364 0.160411 1.766074 15119390
-0.357484 0.156394 1.762471 15119390
-0.353041 0.151280 1.763489 15119390
-0.358165 0.140907 1.750607 15119390
-0.358505 0.133164 1.744675 15119390
-0.358845 0.125420 1.738743 15119390
-0.359185 0.117677 1.732811 15119390
-0.176002 0.256470 1.894442 15119390
-0.161161 0.246285 1.892292 15119390
-0.166886 0.252597 1.878403 15119390
-0.177023 0.233239 1.876646 15119390
-0.177363 0.225496 1.870714 15119390
-0.177703 0.217752 1.864782 15119390
-0.178044 0.210008 1.858850 15119390
-0.178384 0.202265 1.852918 15119390
-0.173268 0.191974 1.846831 15119390
-0.179064 0.186778 1.841054 15119390
-0.179405 0.179034 1.835122 15119390
-0.179745 0.171291 1.829190 15119390
-0.181294 0.168177 1.816420 15119390
-0.174601 0.167381 1.817052 15119390
-0.180766 0.148060 1.811393 15119390
-0.181106 0.140317 1.805461 15119390
-0.169029 0.132669 1.809285 15119390
-0.188323 0.115266 1.803555 15119390
-0.182088 0.110301 1.796414 15119390
-0.168979 0.116682 1.782971 15119390
-0.182807 0.101599 1.775801 15119390
-0.182436 0.082705 1.769728 15119390
-0.183488 0.086112 1.763937 15119390
-0.187614 0.239599 1.898769 15119390
-0.174252 0.248271 1.879714 15119390
-0.180891 0.246394 1.875755 15119390
-0.167155 0.241808 1.871498 15119390
-0.181571 0.230907 1.863891 15119390
-0.181911 0.223164 1.857959 15119390
-0.182252 0.215420 1.852027 15119390
-0.182592 0.207677 1.846095 15119390
-0.182932 0.199933 1.840163 15119390
-0.183272 0.192190 1.834231 15119390
-0.181274 0.178013 1.829738 15119390
-0.176832 0.193223 1.814806 15119390
-0.184293 0.168959 1.816435 15119390
-0.184633 0.161215 1.810503 15119390
-0.184974 0.153472 1.804571 15119390
-0.182525 0.138813 1.793173 15119390
-0.185654 0.137985 1.792707 15119390
-0.185994 0.130241 1.786775 15119390
-0.210968 0.119154 1.781241 15119390
-0.186675 0.114754 1.774910 15119390
-0.192655 0.114233 1.775378 15119390
-0.187355 0.099267 1.763046 15119390
-0.187696 0.091524 1.757114 15119390
-0.172046 0.273358 1.875480 15119390
-0.184759 0.259549 1.874864 15119390
-0.198853 0.273100 1.863971 15119390
-0.185439 0.244062 1.863000 15119390
-0.183034 0.235725 1.861451 15119390
-0.176419 0.239746 1.859355 15119390
-0.186460 0.220832 1.845204 15119390
-0.182287 0.236776 1.836347 15119390
-0.199250 0.205206 1.832786 15119390
-0.193528 0.200710 1.838364 15119390
-0.184273 0.193168 1.836623 15119390
-0.188161 0.182114 1.815544 15119390
-0.196444 0.159931 1.812615 15119390
-0.192147 0.167689 1.789774 15119390
-0.189182 0.158884 1.797748 15119390
-0.189366 0.138912 1.767945 15119390
-0.198208 0.131610 1.790484 15119390
-0.190203 0.135653 1.779952 15119390
-0.190543 0.127909 1.774020 15119390
-0.197969 0.134940 1.757015 15119390
-0.191223 0.112422 1.762156 15119390
-0.197390 0.122441 1.741930 15119390
-0.191904 0.096935 1.750291 15119390
-0.185797 0.276400 1.873117 15119390
-0.188967 0.264961 1.868041 15119390
-0.188718 0.262013 1.867614 15119390
-0.189647 0.249474 1.856177 15119390
-0.189988 0.241731 1.850245 15119390
-0.204685 0.223455 1.850523 15119390
-0.190668 0.226243 1.838381 15119390
-0.191008 0.218500 1.832449 15119390
-0.196322 0.211180 1.834653 15119390
-0.191689 0.203013 1.820585 15119390
-0.189859 0.188913 1.820103 15119390
-0.192369 0.187526 1.808721 15119390
-0.207185 0.169071 1.812616 15119390
-0.193050 0.172039 1.796857 15119390
-0.201940 0.162332 1.801301 15119390
-0.196475 0.168239 1.780340 15119390
-0.194071 0.148808 1.779061 15119390
-0.194411 0.141065 1.773129 15119390
-0.194751 0.133321 1.767197 15119390
-0.195091 0.125578 1.761265 15119390
-0.212977 0.118367 1.753705 15119390
-0.187856 0.100132 1.740535 15119390
-0.196112 0.102347 1.743469 15119390
-0.179782 0.282407 1.872032 15119390
-0.193175 0.270373 1.861219 15119390
-0.193515 0.262629 1.855286 15119390
-0.193855 0.254886 1.849354 15119390
-0.194196 0.247142 1.843422 15119390
-0.187634 0.256046 1.826270 15119390
-0.194876 0.231655 1.831558 15119390
-0.179767 0.220082 1.825846 15119390
-0.190738 0.223221 1.820585 15119390
-0.195156 0.210029 1.831123 15119390
-0.187214 0.179501 1.788730 15119390
-0.196577 0.192937 1.801898 15119390
-0.198880 0.192626 1.797433 15119390
-0.174225 0.173930 1.802280 15119390
-0.207619 0.160571 1.808250 15119390
-0.197938 0.161963 1.778170 15119390
-0.184312 0.157980 1.778159 15119390
-0.198619 0.146476 1.766306 15119390
-0.198959 0.138733 1.760374 15119390
-0.199299 0.130989 1.754442 15119390
-0.211382 0.111515 1.737424 15119390
-0.199980 0.115502 1.742578 15119390
-0.200320 0.107759 1.736646 15119390
-0.197043 0.283528 1.860328 15119390
-0.199414 0.271228 1.860815 15119390
-0.197723 0.268041 1.848464 15119390
-0.198064 0.260297 1.842532 15119390
-0.211683 0.255453 1.830162 15119390
-0.207014 0.231393 1.827524 15119390
-0.199084 0.237067 1.824735 15119390
-0.199425 0.229323 1.818803 15119390
-0.195170 0.206202 1.804272 15119390
-0.200105 0.213836 1.806939 15119390
-0.200445 0.206093 1.801007 15119390
-0.200786 0.198349 1.795075 15119390
-0.191261 0.209142 1.802543 15119390
-0.217246 0.194124 1.782348 15119390
-0.201806 0.175119 1.777279 15119390
-0.202147 0.167375 1.771347 15119390
-0.212368 0.136205 1.785053 15119390
-0.197773 0.164775 1.786333 15119390
-0.206522 0.148254 1.759788 15119390
-0.192682 0.137896 1.763471 15119390
-0.203848 0.128657 1.741687 15119390
-0.216871 0.132312 1.723700 15119390
-0.206760 0.110639 1.739318 15119390
-0.201251 0.288940 1.853505 15119390
-0.201591 0.281196 1.847573 15119390
-0.199023 0.269412 1.853309 15119390
-0.202272 0.265709 1.835709 15119390
-0.218847 0.253490 1.849219 15119390
-0.202952 0.250222 1.823845 15119390
-0.195687 0.259004 1.827524 15119390
-0.203633 0.234735 1.811981 15119390
-0.203973 0.226991 1.806049 15119390
-0.204313 0.219248 1.800116 15119390
-0.223682 0.208046 1.791180 15119390
-0.204994 0.203761 1.788252 15119390
-0.205334 0.196017 1.782320 15119390
-0.205674 0.188274 1.776388 15119390
-0.197680 0.188534 1.754351 15119390
-0.213654 0.169763 1.766218 15119390
-0.216778 0.172093 1.757258 15119390
-0.207035 0.157300 1.752660 15119390
-0.216813 0.145977 1.729729 15119390
-0.207716 0.141813 1.740796 15119390
-0.208056 0.134069 1.734864 15119390
-0.208396 0.126325 1.728932 15119390
-0.198768 0.140775 1.726447 15119390
-0.195524 0.296462 1.876168 15119390
-0.205799 0.286608 1.840750 15119390
-0.206140 0.278864 1.834818 15119390
-0.192048 0.276133 1.836255 15119390
-0.206820 0.263377 1.822954 15119390
-0.207160 0.255634 1.817022 15119390
-0.212875 0.227336 1.827257 15119390
-0.207841 0.240147 1.805158 15119390
-0.208181 0.232403 1.799226 15119390
-0.208521 0.224659 1.793294 15119390
-0.203701 0.232547 1.792662 15119390
-0.233201 0.223244 1.775147 15119390
-0.220827 0.217070 1.774816 15119390
-0.209882 0.193685 1.769565 15119390
-0.210223 0.185942 1.763633 15119390
-0.210563 0.178198 1.757701 15119390
-0.206665 0.180836 1.749827 15119390
-0.211243 0.162711 1.745837 15119390
-0.211584 0.154968 1.739905 15119390
-0.205170 0.131245 1.728261 15119390
-0.212264 0.139481 1.728041 15119390
-0.212604 0.131737 1.722109 15119390
-0.212945 0.123994 1.716177 15119390
-0.209667 0.299763 1.839859 15119390
-0.210008 0.292019 1.833927 15119390
-0.210348 0.284276 1.827995 15119390
-0.217226 0.284366 1.816168 15119390
-0.211028 0.268789 1.816131 15119390
-0.211369 0.261045 1.810199 15119390
-0.221386 0.258969 1.807645 15119390
-0.212049 0.245558 1.798335 15119390
-0.235353 0.236952 1.784790 15119390
-0.230510 0.214588 1.783695 15119390
-0.197486 0.221694 1.782299 15119390
-0.213410 0.214584 1.774607 15119390
-0.213750 0.206841 1.768675 15119390
-0.196678 0.191503 1.765246 15119390
-0.218552 0.192974 1.731159 15119390
-0.215666 0.194464 1.748722 15119390
-0.215111 0.175866 1.744947 15119390
-0.199375 0.179404 1.740241 15119390
-0.222052 0.160079 1.738539 15119390
-0.217576 0.166287 1.707618 15119390
-0.222539 0.130846 1.722988 15119390
-0.216813 0.137149 1.715286 15119390
-0.206741 0.130179 1.703410 15119390
-0.216372 0.285094 1.834899 15119390
-0.207131 0.295057 1.831455 15119390
-0.214556 0.289688 1.821172 15119390
-0.214896 0.281944 1.815240 15119390
-0.217067 0.285331 1.800107 15119390
-0.209312 0.302892 1.803196 15119390
-0.218630 0.259846 1.795879 15119390
-0.216257 0.250970 1.791512 15119390
-0.216598 0.243226 1.785580 15119390
-0.216938 0.235483 1.779648 15119390
-0.219475 0.237994 1.764922 15119390
-0.214549 0.215905 1.772543 15119390
-0.217959 0.212252 1.761852 15119390
-0.218299 0.204509 1.755920 15119390
-0.218639 0.196765 1.749988 15119390
-0.222566 0.187674 1.732366 15119390
-0.219320 0.181278 1.738124 15119390
-0.219470 0.159565 1.727402 15119390
-0.224819 0.161101 1.740279 15119390
-0.217418 0.159782 1.709805 15119390
-0.220681 0.150304 1.714395 15119390
-0.221021 0.142560 1.708463 15119390
-0.213174 0.123135 1.679570 15119390
-0.214723 0.307992 1.819610 15119390
-0.218424 0.302843 1.820281 15119390
-0.218764 0.295099 1.814349 15119390
-0.205078 0.277310 1.797257 15119390
-0.219445 0.279612 1.802485 15119390
-0.217921 0.272446 1.784893 15119390
-0.218720 0.259416 1.798202 15119390
-0.220465 0.256382 1.784689 15119390
-0.220806 0.248638 1.778757 15119390
-0.221146 0.240894 1.772825 15119390
-0.214964 0.230892 1.749968 15119390
-0.222781 0.224247 1.748349 15119390
-0.222167 0.217664 1.755029 15119390
-0.222507 0.209920 1.749097 15119390
-0.222847 0.202177 1.743165 15119390
-0.223187 0.194433 1.737233 15119390
-0.223528 0.186690 1.731301 15119390
-0.223868 0.178946 1.725369 15119390
-0.224208 0.171203 1.719437 15119390
-0.213802 0.159025 1.707203 15119390
-0.224889 0.155716 1.707573 15119390
-0.225229 0.147972 1.701641 15119390
-0.236270 0.138702 1.705503 15119390
-0.222292 0.315998 1.819391 15119390
-0.214625 0.304659 1.818698 15119390
-0.218887 0.293277 1.805588 15119390
-0.223313 0.292767 1.801594 15119390
-0.243578 0.307097 1.786924 15119390
-0.241502 0.269094 1.787118 15119390
-0.228747 0.265589 1.777156 15119390
-0.220033 0.260432 1.780614 15119390
-0.225014 0.254050 1.771934 15119390
-0.243252 0.249728 1.776601 15119390
-0.228300 0.241280 1.780103 15119390
-0.226035 0.230819 1.754138 15119390
-0.226375 0.223076 1.748206 15119390
-0.226715 0.215332 1.742274 15119390
-0.229026 0.204436 1.730566 15119390
-0.224325 0.207878 1.732701 15119390
-0.227736 0.192101 1.724478 15119390
-0.230152 0.171624 1.728363 15119390
-0.228416 0.176614 1.712614 15119390
-0.228757 0.168871 1.706682 15119390
-0.223463 0.162629 1.714714 15119390
-0.229437 0.153384 1.694818 15119390
-0.229777 0.145640 1.688886 15119390
-0.246562 0.317057 1.819922 15119390
-0.226840 0.313666 1.806636 15119390
-0.214740 0.295723 1.802791 15119390
-0.225040 0.282250 1.783892 15119390
-0.236352 0.305850 1.788865 15119390
-0.231916 0.293962 1.775523 15119390
-0.228542 0.274948 1.776975 15119390
-0.228882 0.267205 1.771043 15119390
-0.235835 0.252217 1.759062 15119390
-0.245276 0.262699 1.773251 15119390
-0.229903 0.243974 1.753247 15119390
-0.230243 0.236231 1.747315 15119390
-0.230583 0.228487 1.741383 15119390
-0.230923 0.220744 1.735451 15119390
-0.231264 0.213000 1.729519 15119390
-0.223289 0.193386 1.719218 15119390
-0.231944 0.197513 1.717655 15119390
-0.232284 0.189770 1.711723 15119390
-0.229698 0.185129 1.717172 15119390
-0.232965 0.174282 1.699859 15119390
-0.233305 0.166539 1.693927 15119390
-0.232396 0.150279 1.687852 15119390
-0.233986 0.151052 1.682063 15119390
-0.226500 0.321410 1.812568 15119390
-0.226826 0.314003 1.806894 15119390
-0.238839 0.320537 1.812761 15119390
-0.227476 0.299189 1.795545 15119390
-0.226170 0.292896 1.796424 15119390
-0.231641 0.287783 1.782709 15119390
-0.228453 0.276968 1.778523 15119390
-0.208827 0.280649 1.768807 15119390
-0.254157 0.245868 1.779794 15119390
-0.220917 0.263018 1.769274 15119390
-0.229755 0.247341 1.755826 15119390
-0.237665 0.229926 1.754458 15119390
-0.209316 0.222895 1.729388 15119390
-0.208024 0.219198 1.735784 15119390
-0.236352 0.235622 1.736389 15119390
-0.231382 0.210307 1.727456 15119390
-0.231707 0.202900 1.721782 15119390
-0.229681 0.174576 1.710943 15119390
-0.234924 0.189910 1.698304 15119390
-0.232597 0.182153 1.707613 15119390
-0.233009 0.173272 1.699085 15119390
-0.242162 0.180384 1.699060 15119390
-0.233660 0.158459 1.687737 15119390
-0.244505 0.147503 1.657855 15119390
-0.235443 0.319026 1.816193 15119390
-0.219476 0.312074 1.827032 15119390
-0.247906 0.293517 1.812555 15119390
-0.245473 0.292604 1.805109 15119390
-0.214708 0.286757 1.793761 15119390
-0.237070 0.281991 1.787822 15119390
-0.233178 0.261545 1.771637 15119390
-0.231474 0.281976 1.782147 15119390
-0.238047 0.259771 1.770800 15119390
-0.228971 0.272714 1.757174 15119390
-0.245553 0.244695 1.772102 15119390
-0.235167 0.230374 1.737025 15119390
-0.239348 0.230143 1.748103 15119390
-0.239674 0.222736 1.742429 15119390
-0.223710 0.234447 1.747974 15119390
-0.234249 0.199370 1.738515 15119390
-0.240650 0.200516 1.725407 15119390
-0.240976 0.193109 1.719732 15119390
-0.241301 0.185702 1.714058 15119390
-0.232284 0.171381 1.705832 15119390
-0.241952 0.170889 1.702710 15119390
-0.246622 0.163931 1.699983 15119390
-0.221560 0.163393 1.698781 15119390
-0.250659 0.139897 1.685792 15119390
-0.244050 0.308859 1.806219 15119390
-0.244711 0.309235 1.814143 15119390
-0.245037 0.301828 1.808469 15119390
-0.245362 0.294421 1.802795 15119390
-0.243422 0.272744 1.796944 15119390
-0.246013 0.279607 1.791447 15119390
-0.246338 0.272201 1.785773 15119390
-0.246664 0.264794 1.780099 15119390
-0.246989 0.257387 1.774424 15119390
-0.229594 0.250622 1.770482 15119390
-0.247640 0.242573 1.763076 15119390
-0.247655 0.238476 1.751022 15119390
-0.248291 0.227759 1.751728 15119390
-0.248617 0.220353 1.746054 15119390
-0.248942 0.212946 1.740380 15119390
-0.231478 0.212451 1.724374 15119390
-0.261795 0.196061 1.741454 15119390
-0.249919 0.190725 1.723357 15119390
-0.250244 0.183318 1.717683 15119390
-0.228477 0.178482 1.726138 15119390
-0.250895 0.168505 1.706335 15119390
-0.251220 0.161098 1.700661 15119390
-0.243814 0.168844 1.683570 15119390
-0.251871 0.146284 1.689313 15119390
-0.253329 0.314258 1.823442 15119390
-0.251959 0.293957 1.829156 15119390
-0.244686 0.284418 1.806300 15119390
-0.249275 0.294721 1.809069 15119390
-0.254630 0.284630 1.800746 15119390
-0.254956 0.277223 1.795072 15119390
-0.278786 0.269029 1.796938 15119390
-0.265506 0.265744 1.781362 15119390
-0.255932 0.255003 1.778049 15119390
-0.256258 0.247596 1.772375 15119390
-0.256583 0.240189 1.766701 15119390
-0.247464 0.210462 1.758533 15119390
-0.257234 0.225375 1.755353 15119390
-0.257560 0.217969 1.749679 15119390
-0.251533 0.204736 1.724533 15119390
-0.266044 0.192474 1.749241 15119390
-0.276560 0.190470 1.735381 15119390
-0.258861 0.188341 1.726982 15119390
-0.249502 0.172952 1.736203 15119390
-0.267100 0.192846 1.728403 15119390
-0.265800 0.159127 1.705487 15119390
-0.292056 0.166607 1.708986 15119390
-0.260489 0.151307 1.698612 15119390
-0.256472 0.136139 1.678100 15119390
-0.262271 0.311874 1.827067 15119390
-0.250884 0.291300 1.823461 15119390
-0.262922 0.297060 1.815719 15119390
-0.263248 0.289653 1.810045 15119390
-0.251597 0.293478 1.816529 15119390
-0.263899 0.274840 1.798697 15119390
-0.264224 0.267433 1.793022 15119390
-0.264550 0.260026 1.787348 15119390
-0.264875 0.252619 1.781674 15119390
-0.265201 0.245212 1.776000 15119390
-0.265526 0.237805 1.770326 15119390
-0.268777 0.234558 1.750703 15119390
-0.263526 0.224747 1.749382 15119390
-0.262410 0.212063 1.740857 15119390
-0.258158 0.199545 1.742864 15119390
-0.256238 0.184886 1.753182 15119390
-0.267479 0.193364 1.736281 15119390
-0.267804 0.185957 1.730607 15119390
-0.279743 0.198533 1.722164 15119390
-0.268455 0.171144 1.719259 15119390
-0.268781 0.163737 1.713585 15119390
-0.269106 0.156330 1.707911 15119390
-0.276318 0.135604 1.688058 15119390
-0.269757 0.141516 1.696562 15119390
-0.271214 0.309490 1.830692 15119390
-0.271540 0.302083 1.825018 15119390
-0.272076 0.291441 1.810172 15119390
-0.272191 0.287269 1.813670 15119390
-0.272516 0.279862 1.807996 15119390
-0.272842 0.272456 1.802321 15119390
-0.273167 0.265049 1.796647 15119390
-0.273493 0.257642 1.790973 15119390
-0.294695 0.256165 1.781718 15119390
-0.262224 0.225817 1.788398 15119390
-0.288505 0.239990 1.764667 15119390
-0.254987 0.217622 1.770670 15119390
-0.275120 0.220608 1.762603 15119390
-0.275445 0.213201 1.756928 15119390
-0.275771 0.205794 1.751254 15119390
-0.276096 0.198387 1.745580 15119390
-0.276422 0.190980 1.739906 15119390
-0.273423 0.197992 1.738311 15119390
-0.288244 0.186970 1.731277 15119390
-0.259446 0.172653 1.716428 15119390
-0.278724 0.159279 1.699923 15119390
-0.278049 0.153946 1.711535 15119390
-0.278374 0.146539 1.705861 15119390
-0.278700 0.139132 1.700187 15119390
-0.278134 0.328511 1.826912 15119390
-0.283739 0.301843 1.813463 15119390
-0.280808 0.292292 1.822969 15119390
-0.266867 0.277795 1.805528 15119390
-0.281459 0.277479 1.811620 15119390
-0.281784 0.270072 1.805946 15119390
-0.282110 0.262665 1.800272 15119390
-0.277256 0.247769 1.799733 15119390
-0.282761 0.247851 1.788924 15119390
-0.283086 0.240444 1.783250 15119390
-0.276299 0.235457 1.786693 15119390
-0.303410 0.212692 1.786017 15119390
-0.267571 0.218537 1.763613 15119390
-0.284388 0.210817 1.760553 15119390
-0.284714 0.203410 1.754879 15119390
-0.281855 0.176144 1.754316 15119390
-0.284443 0.192196 1.746391 15119390
-0.271721 0.170482 1.736915 15119390
-0.286015 0.173783 1.732183 15119390
-0.291963 0.164131 1.718075 15119390
-0.286666 0.158969 1.720834 15119390
-0.286992 0.151562 1.715160 15119390
-0.287317 0.144155 1.709486 15119390
-0.287643 0.136748 1.703812 15119390
-0.289100 0.304722 1.837942 15119390
-0.289425 0.297315 1.832268 15119390
-0.289751 0.289908 1.826594 15119390
-0.298902 0.288468 1.821485 15119390
-0.290402 0.275095 1.815245 15119390
-0.294072 0.253048 1.817680 15119390
-0.291053 0.260281 1.803897 15119390
-0.279213 0.242997 1.812462 15119390
-0.291704 0.245467 1.792549 15119390
-0.292029 0.238060 1.786875 15119390
-0.292355 0.230653 1.781201 15119390
-0.292680 0.223247 1.775526 15119390
-0.284912 0.207290 1.764695 15119390
-0.298083 0.196050 1.763237 15119390
-0.293656 0.201026 1.758504 15119390
-0.309153 0.193794 1.737795 15119390
-0.288205 0.183327 1.728472 15119390
-0.302840 0.163350 1.746692 15119390
-0.294625 0.165649 1.722524 15119390
-0.295284 0.163992 1.730133 15119390
-0.300218 0.163295 1.725656 15119390
-0.295935 0.149178 1.718785 15119390
-0.304511 0.158248 1.721999 15119390
-0.296586 0.134364 1.707437 15119390
-0.298043 0.302338 1.841567 15119390
-0.305572 0.313031 1.848456 15119390
-0.298453 0.297128 1.822242 15119390
-0.303125 0.283221 1.819693 15119390
-0.315387 0.280180 1.830375 15119390
-0.312423 0.251510 1.807684 15119390
-0.294630 0.241250 1.816337 15119390
-0.280815 0.247270 1.809309 15119390
-0.302074 0.238288 1.798907 15119390
-0.306101 0.221164 1.781929 15119390
-0.301297 0.228270 1.784825 15119390
-0.294695 0.219672 1.790958 15119390
-0.301948 0.213456 1.773477 15119390
-0.302274 0.206049 1.767803 15119390
-0.302599 0.198642 1.762129 15119390
-0.312230 0.200036 1.752287 15119390
-0.303250 0.183828 1.750781 15119390
-0.303576 0.176422 1.745107 15119390
-0.303901 0.169015 1.739432 15119390
-0.304030 0.160341 1.728356 15119390
-0.304552 0.154201 1.728084 15119390
-0.304877 0.146794 1.722410 15119390
-0.288798 0.151471 1.707981 15119390
-0.299010 0.150471 1.718792 15119390
-0.306986 0.299954 1.845191 15119390
-0.297396 0.297727 1.838340 15119390
-0.307637 0.285140 1.833843 15119390
-0.307697 0.281295 1.812711 15119390
-0.320430 0.264400 1.821859 15119390
-0.308613 0.262920 1.816821 15119390
-0.311908 0.263589 1.790739 15119390
-0.309264 0.248106 1.805473 15119390
-0.309589 0.240699 1.799799 15119390
-0.301470 0.223883 1.793081 15119390
-0.310240 0.225886 1.788450 15119390
-0.312418 0.221966 1.789359 15119390
-0.297687 0.210439 1.770167 15119390
-0.306016 0.206811 1.779492 15119390
-0.311542 0.196258 1.765754 15119390
-0.311868 0.188851 1.760080 15119390
-0.312193 0.181444 1.754406 15119390
-0.294958 0.188378 1.754958 15119390
-0.308899 0.189770 1.757721 15119390
-0.313169 0.159224 1.737383 15119390
-0.313495 0.151817 1.731709 15119390
-0.307613 0.139848 1.734745 15119390
-0.308771 0.145936 1.717077 15119390
-0.314471 0.129596 1.714687 15119390
-0.324427 0.313581 1.851884 15119390
-0.309368 0.297964 1.870930 15119390
-0.319175 0.285732 1.842027 15119390
-0.333047 0.275242 1.827526 15119390
-0.322922 0.259467 1.832661 15119390
-0.317556 0.260536 1.820446 15119390
-0.316908 0.256847 1.826168 15119390
-0.320810 0.234083 1.807434 15119390
-0.315627 0.245511 1.800429 15119390
-0.328655 0.249965 1.791810 15119390
-0.305934 0.235393 1.797159 15119390
-0.319509 0.216095 1.786401 15119390
-0.319834 0.208688 1.780727 15119390
-0.326357 0.205040 1.774932 15119390
-0.318495 0.185519 1.776044 15119390
-0.337103 0.194512 1.765828 15119390
-0.332371 0.174497 1.757822 15119390
-0.321461 0.171654 1.752356 15119390
-0.317337 0.157789 1.743370 15119390
-0.313580 0.153876 1.760482 15119390
-0.322438 0.149433 1.735334 15119390
-0.332947 0.138889 1.730139 15119390
-0.326718 0.137611 1.717682 15119390
-0.312122 0.120760 1.715077 15119390
-0.324871 0.295186 1.852441 15119390
-0.325197 0.287779 1.846767 15119390
-0.325522 0.280373 1.841093 15119390
-0.331615 0.262981 1.848952 15119390
-0.326173 0.265559 1.829745 15119390
-0.322463 0.251176 1.833300 15119390
-0.326824 0.250745 1.818396 15119390
-0.330308 0.244820 1.818300 15119390
-0.327475 0.235931 1.807048 15119390
-0.327801 0.228525 1.801374 15119390
-0.328126 0.221118 1.795700 15119390
-0.328451 0.213711 1.790026 15119390
-0.328777 0.206304 1.784352 15119390
-0.329102 0.198897 1.778678 15119390
-0.332871 0.177677 1.769256 15119390
-0.327173 0.188694 1.764164 15119390
-0.333132 0.177548 1.757211 15119390
-0.330404 0.169270 1.755981 15119390
-0.330730 0.161863 1.750307 15119390
-0.331055 0.154456 1.744633 15119390
-0.331381 0.147049 1.738959 15119390
-0.317800 0.144543 1.737022 15119390
-0.328877 0.100808 1.732406 15119390
-0.332357 0.124829 1.721936 15119390
-0.333814 0.292802 1.856066 15119390
-0.361563 0.286490 1.862397 15119390
-0.333837 0.262238 1.843341 15119390
-0.334791 0.270582 1.839044 15119390
-0.335116 0.263175 1.833370 15119390
-0.335442 0.255768 1.827695 15119390
-0.348523 0.243146 1.819329 15119390
-0.336092 0.240954 1.816347 15119390
-0.336418 0.233547 1.810673 15119390
-0.333602 0.226481 1.779881 15119390
-0.356725 0.223404 1.793594 15119390
-0.348079 0.189980 1.783640 15119390
-0.353237 0.205553 1.783026 15119390
-0.344168 0.193019 1.789601 15119390
-0.346028 0.171601 1.777774 15119390
-0.338696 0.181700 1.770954 15119390
-0.339022 0.174293 1.765280 15119390
-0.327553 0.176784 1.764764 15119390
-0.339673 0.159479 1.753932 15119390
-0.343220 0.148580 1.760844 15119390
-0.340323 0.144665 1.742584 15119390
-0.331346 0.144773 1.736259 15119390
-0.358181 0.132173 1.731273 15119390
-0.341300 0.122445 1.725561 15119390
-0.342757 0.290418 1.859691 15119390
-0.343083 0.283012 1.854017 15119390
-0.343408 0.275605 1.848343 15119390
-0.343734 0.268198 1.842669 15119390
-0.340629 0.267337 1.825252 15119390
-0.346778 0.280059 1.814724 15119390
-0.344710 0.245977 1.825646 15119390
-0.345035 0.238570 1.819972 15119390
-0.345361 0.231164 1.814298 15119390
-0.345686 0.223757 1.808624 15119390
-0.346012 0.216350 1.802950 15119390
-0.346337 0.208943 1.797276 15119390
-0.346663 0.201536 1.791602 15119390
-0.346988 0.194129 1.785927 15119390
-0.352986 0.181219 1.788962 15119390
-0.339870 0.188576 1.780398 15119390
-0.336571 0.182929 1.758183 15119390
-0.343786 0.166139 1.759076 15119390
-0.333150 0.175945 1.762496 15119390
-0.348941 0.149688 1.751883 15119390
-0.354719 0.156976 1.741015 15119390
-0.349592 0.134874 1.740534 15119390
-0.349917 0.127468 1.734860 15119390
-0.350243 0.120061 1.729186 15119390
-0.358644 0.285030 1.865024 15119390
-0.345447 0.286881 1.853435 15119390
-0.352351 0.273221 1.851968 15119390
-0.367024 0.272371 1.835596 15119390
-0.355994 0.264023 1.847176 15119390
-0.353327 0.251000 1.834945 15119390
-0.353653 0.243593 1.829271 15119390
-0.365408 0.251105 1.831501 15119390
-0.353205 0.248647 1.808507 15119390
-0.354629 0.221373 1.812249 15119390
-0.347423 0.215307 1.805452 15119390
-0.355280 0.206559 1.800900 15119390
-0.355605 0.199152 1.795226 15119390
-0.355931 0.191745 1.789552 15119390
-0.345441 0.167545 1.784255 15119390
-0.362016 0.179526 1.771956 15119390
-0.356907 0.169525 1.772530 15119390
-0.367980 0.174932 1.773643 15119390
-0.360029 0.164277 1.773024 15119390
-0.357884 0.147304 1.755508 15119390
-0.358209 0.139897 1.749833 15119390
-0.358535 0.132491 1.744159 15119390
-0.358860 0.125084 1.738485 15119390
-0.340251 0.109821 1.738505 15119390
-0.176725 0.255959 1.875058 15119390
-0.179171 0.244704 1.908360 15119390
-0.156215 0.236503 1.876187 15119390
-0.185223 0.237469 1.903828 15119390
-0.177304 0.226842 1.871746 15119390
-0.177629 0.219435 1.866071 15119390
-0.177955 0.212029 1.860397 15119390
-0.178280 0.204622 1.854723 15119390
-0.178606 0.197215 1.849049 15119390
-0.178931 0.189808 1.843375 15119390
-0.179257 0.182401 1.837701 15119390
-0.179582 0.174994 1.832027 15119390
-0.168526 0.186129 1.833713 15119390
-0.182221 0.164310 1.815428 15119390
-0.180558 0.152774 1.815004 15119390
-0.180884 0.145367 1.809330 15119390
-0.168519 0.136756 1.806283 15119390
-0.169840 0.138586 1.802306 15119390
-0.174592 0.128713 1.800258 15119390
-0.173010 0.097497 1.788342 15119390
-0.182511 0.108333 1.780960 15119390
-0.182837 0.100926 1.775285 15119390
-0.184899 0.102589 1.777331 15119390
-0.183127 0.085216 1.768194 15119390
-0.184945 0.254086 1.898067 15119390
-0.185270 0.246679 1.892393 15119390
-0.191778 0.242458 1.886620 15119390
-0.185090 0.223716 1.883233 15119390
-0.186247 0.224458 1.875370 15119390
-0.186572 0.217051 1.869696 15119390
-0.188006 0.199818 1.856709 15119390
-0.187223 0.202238 1.858348 15119390
-0.187549 0.194831 1.852674 15119390
-0.172763 0.190138 1.859871 15119390
-0.188199 0.180017 1.841326 15119390
-0.188525 0.172610 1.835652 15119390
-0.194184 0.159375 1.837549 15119390
-0.189176 0.157797 1.824303 15119390
-0.202153 0.150633 1.810566 15119390
-0.189827 0.142983 1.812955 15119390
-0.190152 0.135576 1.807281 15119390
-0.199704 0.137488 1.794121 15119390
-0.195373 0.133395 1.796342 15119390
-0.191129 0.113356 1.790259 15119390
-0.191454 0.105949 1.784584 15119390
-0.195328 0.088206 1.771355 15119390
-0.192105 0.091135 1.773236 15119390
-0.192430 0.083728 1.767562 15119390
-0.193888 0.251702 1.901692 15119390
-0.194213 0.244295 1.896018 15119390
-0.194539 0.236888 1.890344 15119390
-0.178307 0.213603 1.885258 15119390
-0.191672 0.205948 1.877840 15119390
-0.195515 0.214668 1.873321 15119390
-0.195840 0.207261 1.867647 15119390
-0.196166 0.199854 1.861973 15119390
-0.198556 0.186818 1.859037 15119390
-0.196817 0.185040 1.850625 15119390
-0.197058 0.177318 1.838486 15119390
-0.197468 0.170226 1.839276 15119390
-0.220534 0.166071 1.841411 15119390
-0.198119 0.155413 1.827928 15119390
-0.204327 0.138816 1.829979 15119390
-0.199310 0.148985 1.807174 15119390
-0.199095 0.133192 1.810906 15119390
-0.199420 0.125785 1.805232 15119390
-0.207789 0.119604 1.799505 15119390
-0.200071 0.110972 1.793883 15119390
-0.200397 0.103565 1.788209 15119390
-0.174648 0.087790 1.786495 15119390
-0.201048 0.088751 1.776861 15119390
-0.201373 0.081344 1.771187 15119390
-0.184744 0.240195 1.899322 15119390
-0.216974 0.258587 1.900251 15119390
-0.203482 0.234504 1.893968 15119390
-0.219171 0.222154 1.896462 15119390
-0.204132 0.219690 1.882620 15119390
-0.214324 0.218228 1.878757 15119390
-0.207062 0.190738 1.879414 15119390
-0.205109 0.197470 1.865598 15119390
-0.216110 0.183742 1.859349 15119390
-0.192584 0.182505 1.858539 15119390
-0.206085 0.175249 1.848575 15119390
-0.206411 0.167842 1.842901 15119390
-0.202204 0.171256 1.846769 15119390
-0.204517 0.145446 1.840314 15119390
-0.196210 0.140589 1.815401 15119390
-0.204936 0.139787 1.831270 15119390
-0.191349 0.119189 1.808043 15119390
-0.206909 0.123021 1.808003 15119390
-0.206721 0.122206 1.781939 15119390
-0.202467 0.120387 1.802322 15119390
-0.211812 0.094006 1.800384 15119390
-0.209665 0.093774 1.786160 15119390
-0.197137 0.084397 1.768314 15119390
-0.210316 0.078960 1.774812 15119390
-0.212732 0.240078 1.920880 15119390
-0.206695 0.225707 1.908743 15119390
-0.215070 0.233922 1.890554 15119390
-0.208194 0.217608 1.873243 15119390
-0.219267 0.203269 1.889126 15119390
-0.201980 0.210802 1.869220 15119390
-0.216200 0.203224 1.871805 15119390
-0.214052 0.195086 1.869223 15119390
-0.214377 0.187679 1.863549 15119390
-0.214703 0.180272 1.857874 15119390
-0.221517 0.178975 1.851753 15119390
-0.213766 0.129000 1.844211 15119390
-0.215679 0.158052 1.840852 15119390
-0.213257 0.141447 1.813020 15119390
-0.227779 0.151695 1.832251 15119390
-0.212698 0.134436 1.829405 15119390
-0.216981 0.128424 1.818156 15119390
-0.204014 0.098785 1.811051 15119390
-0.217632 0.113611 1.806807 15119390
-0.217957 0.106204 1.801133 15119390
-0.218283 0.098797 1.795459 15119390
-0.218608 0.091390 1.789785 15119390
-0.216905 0.083494 1.771565 15119390
-0.225409 0.061842 1.782546 15119390
-0.240475 0.234033 1.921193 15119390
-0.221042 0.237143 1.906892 15119390
-0.214865 0.220489 1.910667 15119390
-0.212265 0.226231 1.901405 15119390
-0.232246 0.203664 1.890696 15119390
-0.222344 0.207516 1.884196 15119390
-0.222669 0.200109 1.878522 15119390
-0.222994 0.192702 1.872848 15119390
-0.227837 0.172264 1.872709 15119390
-0.240067 0.178059 1.855884 15119390
-0.232410 0.164170 1.853027 15119390
-0.209259 0.162212 1.857316 15119390
-0.216115 0.165354 1.840197 15119390
-0.224947 0.148261 1.838803 15119390
-0.235183 0.150128 1.828113 15119390
-0.234618 0.134001 1.859551 15119390
-0.230420 0.137681 1.807778 15119390
-0.226249 0.118633 1.816106 15119390
-0.226575 0.111227 1.810432 15119390
-0.226900 0.103820 1.804758 15119390
-0.227225 0.096413 1.799084 15119390
-0.227551 0.089006 1.793410 15119390
-0.227876 0.081599 1.787736 15119390
-0.229649 0.061335 1.782785 15119390
-0.238743 0.227003 1.901799 15119390
-0.229985 0.234759 1.910517 15119390
-0.230310 0.227352 1.904843 15119390
-0.230636 0.219945 1.899169 15119390
-0.230469 0.203703 1.875970 15119390
-0.229619 0.200341 1.901952 15119390
-0.233441 0.195032 1.877935 15119390
-0.231937 0.190318 1.876472 15119390
-0.232263 0.182911 1.870798 15119390
-0.231722 0.181778 1.849913 15119390
-0.239233 0.146466 1.860173 15119390
-0.233239 0.160691 1.853776 15119390
-0.233565 0.153284 1.848102 15119390
-0.227464 0.140091 1.846542 15119390
-0.237530 0.143072 1.828809 15119390
-0.234541 0.131063 1.831079 15119390
-0.234866 0.123656 1.825405 15119390
-0.243188 0.116691 1.821152 15119390
-0.242967 0.120846 1.805449 15119390
-0.226999 0.099214 1.796062 15119390
-0.236168 0.094029 1.802709 15119390
-0.236494 0.086622 1.797035 15119390
-0.236819 0.079215 1.791361 15119390
-0.226738 0.070904 1.787690 15119390
-0.243000 0.235452 1.913126 15119390
-0.238927 0.232375 1.914142 15119390
-0.237239 0.235992 1.905884 15119390
-0.237007 0.210994 1.921438 15119390
-0.239904 0.210155 1.897120 15119390
-0.240229 0.202748 1.891446 15119390
-0.235671 0.195290 1.895597 15119390
-0.248025 0.169827 1.880072 15119390
-0.241206 0.180527 1.874423 15119390
-0.241531 0.173120 1.868749 15119390
-0.252151 0.156997 1.874097 15119390
-0.242182 0.158307 1.857401 15119390
-0.251117 0.149366 1.841963 15119390
-0.242833 0.143493 1.846053 15119390
-0.247446 0.128120 1.833182 15119390
-0.242384 0.122740 1.826060 15119390
-0.243809 0.121272 1.829030 15119390
-0.251841 0.111430 1.838357 15119390
-0.244460 0.106459 1.817682 15119390
-0.244786 0.099052 1.812008 15119390
-0.245111 0.091645 1.806334 15119390
-0.245437 0.084238 1.800660 15119390
-0.236479 0.078594 1.793726 15119390
-0.246087 0.069424 1.789311 15119390
-0.247545 0.237398 1.923441 15119390
-0.247870 0.229991 1.917767 15119390
-0.248164 0.222236 1.922593 15119390
-0.248521 0.215178 1.906419 15119390
-0.241916 0.222219 1.888881 15119390
-0.249172 0.200364 1.895070 15119390
-0.249498 0.192957 1.889396 15119390
-0.239557 0.185860 1.877776 15119390
-0.252299 0.181979 1.871810 15119390
-0.263353 0.182171 1.885034 15119390
-0.253602 0.162920 1.862629 15119390
-0.251125 0.155923 1.861026 15119390
-0.251450 0.148516 1.855352 15119390
-0.265736 0.139892 1.835350 15119390
-0.252200 0.119182 1.845181 15119390
-0.256720 0.134067 1.851809 15119390
-0.252752 0.118889 1.832655 15119390
-0.253078 0.111482 1.826981 15119390
-0.254179 0.092524 1.837996 15119390
-0.264100 0.104134 1.820941 15119390
-0.274496 0.095623 1.805227 15119390
-0.260539 0.077233 1.810793 15119390
-0.256578 0.082512 1.797316 15119390
-0.255030 0.067041 1.792936 15119390
-0.258228 0.247083 1.924116 15119390
-0.256813 0.227607 1.921392 15119390
-0.257139 0.220201 1.915718 15119390
-0.257464 0.212794 1.910043 15119390
-0.257790 0.205387 1.904369 15119390
-0.258115 0.197980 1.898695 15119390
-0.260828 0.200556 1.890185 15119390
-0.258766 0.183166 1.887347 15119390
-0.259091 0.175759 1.881673 15119390
-0.259417 0.168353 1.875999 15119390
-0.259742 0.160946 1.870325 15119390
-0.260068 0.153539 1.864651 15119390
-0.266718 0.158379 1.869293 15119390
-0.260719 0.138725 1.853302 15119390
-0.261044 0.131318 1.847628 15119390
-0.261370 0.123911 1.841954 15119390
-0.261695 0.116505 1.836280 15119390
-0.255161 0.114055 1.853417 15119390
-0.262346 0.101691 1.824932 15119390
-0.256175 0.093949 1.808589 15119390
-0.254993 0.087396 1.803665 15119390
-0.263322 0.079470 1.807909 15119390
-0.263648 0.072063 1.802235 15119390
-0.263973 0.064657 1.796561 15119390
-0.266827 0.233864 1.944072 15119390
-0.265756 0.225223 1.925017 15119390
-0.266081 0.217817 1.919342 15119390
-0.274263 0.207545 1.903168 15119390
-0.266732 0.203003 1.907994 15119390
-0.254176 0.195832 1.900230 15119390
-0.267383 0.188189 1.896646 15119390
-0.268768 0.188401 1.888303 15119390
-0.271540 0.173024 1.882046 15119390
-0.267244 0.177042 1.888164 15119390
-0.269973 0.159942 1.876929 15119390
-0.277379 0.161168 1.884550 15119390
-0.277970 0.141513 1.861274 15119390
-0.269661 0.136341 1.856927 15119390
-0.278144 0.126868 1.866430 15119390
-0.271841 0.115107 1.850200 15119390
-0.259340 0.125040 1.827937 15119390
-0.282893 0.117202 1.833738 15119390
-0.258401 0.099903 1.850950 15119390
-0.271614 0.091900 1.822882 15119390
-0.271940 0.084493 1.817208 15119390
-0.267716 0.075779 1.829830 15119390
-0.248137 0.057737 1.804564 15119390
-0.272916 0.062273 1.800186 15119390
-0.266378 0.238162 1.946781 15119390
-0.274699 0.222840 1.928641 15119390
-0.275024 0.215433 1.922967 15119390
-0.281951 0.198952 1.913837 15119390
-0.261628 0.200552 1.911875 15119390
-0.276001 0.193212 1.905945 15119390
-0.276326 0.185805 1.900271 15119390
-0.276652 0.178398 1.894597 15119390
-0.273501 0.168667 1.887273 15119390
-0.277303 0.163585 1.883248 15119390
-0.276768 0.154206 1.869079 15119390
-0.286718 0.138534 1.874240 15119390
-0.278237 0.157283 1.855822 15119390
-0.258822 0.129908 1.859396 15119390
-0.280048 0.107609 1.851352 15119390
-0.279255 0.119144 1.849204 15119390
-0.279581 0.111737 1.843530 15119390
-0.284778 0.094649 1.841697 15119390
-0.280232 0.096923 1.832181 15119390
-0.280557 0.089516 1.826507 15119390
-0.280883 0.082109 1.820833 15119390
-0.266752 0.061581 1.804671 15119390
-0.284618 0.059431 1.809343 15119390
-0.274920 0.066988 1.789582 15119390
-0.283316 0.227862 1.937940 15119390
-0.277456 0.223949 1.931628 15119390
-0.267613 0.195593 1.929681 15119390
-0.284293 0.205642 1.920918 15119390
-0.284618 0.198235 1.915244 15119390
-0.293612 0.181170 1.913132 15119390
-0.291638 0.183543 1.903048 15119390
-0.285594 0.176014 1.898222 15119390
-0.265563 0.151449 1.887555 15119390
-0.300003 0.166604 1.888167 15119390
-0.286571 0.153794 1.881199 15119390
-0.290982 0.140456 1.880373 15119390
-0.278835 0.127993 1.873503 15119390
-0.288236 0.139078 1.850505 15119390
-0.267661 0.127766 1.867201 15119390
-0.290617 0.124432 1.849268 15119390
-0.288524 0.109353 1.847155 15119390
-0.288849 0.101946 1.841480 15119390
-0.282697 0.086296 1.822379 15119390
-0.289500 0.087132 1.830132 15119390
-0.289825 0.079725 1.824458 15119390
-0.290151 0.072319 1.818784 15119390
-0.290476 0.064912 1.813110 15119390
-0.309081 0.060465 1.811236 15119390
-0.292259 0.225479 1.941565 15119390
-0.299989 0.228349 1.940911 15119390
-0.292910 0.210665 1.930217 15119390
-0.293236 0.203258 1.924543 15119390
-0.303401 0.198825 1.900817 15119390
-0.291175 0.201372 1.929641 15119390
-0.308740 0.201553 1.913924 15119390
-0.294537 0.173631 1.901846 15119390
-0.302696 0.172673 1.892610 15119390
-0.295188 0.158817 1.890498 15119390
-0.291017 0.151053 1.893220 15119390
-0.276665 0.145707 1.900966 15119390
-0.279507 0.130859 1.885518 15119390
-0.306662 0.129584 1.882098 15119390
-0.296816 0.121783 1.862128 15119390
-0.307228 0.146627 1.870579 15119390
-0.300354 0.123543 1.853818 15119390
-0.308082 0.100286 1.852185 15119390
-0.280884 0.096884 1.828886 15119390
-0.292775 0.093885 1.824550 15119390
-0.298768 0.077341 1.828083 15119390
-0.299094 0.069935 1.822409 15119390
-0.299419 0.062528 1.816735 15119390
-0.299745 0.055121 1.811061 15119390
-0.290124 0.222523 1.946106 15119390
-0.311899 0.225037 1.956863 15119390
-0.307488 0.203781 1.938270 15119390
-0.292735 0.230575 1.945699 15119390
-0.296544 0.191864 1.914660 15119390
-0.298306 0.205516 1.925580 15119390
-0.284698 0.197621 1.918506 15119390
-0.298231 0.177705 1.882808 15119390
-0.293582 0.143798 1.902856 15119390
-0.304131 0.156433 1.894123 15119390
-0.304457 0.149026 1.888449 15119390
-0.307576 0.168116 1.880655 15119390
-0.305107 0.134212 1.877101 15119390
-0.312019 0.124627 1.859641 15119390
-0.321174 0.105891 1.848641 15119390
-0.306084 0.111992 1.860078 15119390
-0.298015 0.107402 1.860572 15119390
-0.306735 0.097178 1.848730 15119390
-0.310576 0.084268 1.877231 15119390
-0.309299 0.071242 1.831083 15119390
-0.291465 0.093827 1.844340 15119390
-0.290238 0.066331 1.826950 15119390
-0.308362 0.060144 1.820360 15119390
-0.308687 0.052737 1.814685 15119390
-0.178672 0.095097 1.768696 15119390
-0.187696 0.091524 1.757114 15119390
-0.191904 0.096935 1.750291 15119390
-0.196112 0.102347 1.743469 15119390
-0.200320 0.107759 1.736646 15119390
