# .PCD v.7 - Point Cloud Data file format
VERSION .7
FIELDS x y z rgb
SIZE 4 4 4 4
TYPE F F F U
COUNT 1 1 1 1
WIDTH 1334
HEIGHT 1
VIEWPOINT 0 0 0 1 0 0 0
POINTS 1334
DATA ascii
-0.113261 0.089271 1.086924 2672840
0.196056 0.097362 0.813593 2672840
0.205913 0.091001 0.813543 2672840
0.211324 0.086653 0.813869 2672840
0.215782 0.080964 0.813335 2672840
0.222536 0.071368 0.813421 2672840
-0.043469 0.000260 1.132989 2672840
-0.068627 0.011199 1.130361 2672840
-0.155198 0.135918 1.080318 2672840
-0.225992 0.089665 1.008159 2672840
0.009783 -0.036103 1.147659 2672840
0.172902 0.092634 0.931749 2672840
0.020679 -0.060814 1.165617 2672840
-0.162339 0.144948 1.071132 2672840
-0.088112 0.078396 1.032012 2672840
-0.140946 0.122438 0.990366 2672840
-0.091349 0.044130 1.054023 2672840
-0.221426 0.052540 1.068408 2672840
-0.153121 0.152820 1.035195 2672840
0.141031 0.122052 0.814795 2672840
0.157611 0.103754 0.814208 2672840
0.133903 0.104892 0.990069 2672840
-0.154215 0.143363 1.058361 2672840
0.201952 0.094233 0.816049 2672840
0.219514 0.077370 0.815739 2672840
-0.060422 0.017800 1.121748 2672840
-0.231324 0.061768 1.033617 2672840
-0.173545 0.043993 0.848712 2672840
0.149737 0.094299 0.981291 2672840
-0.031209 -0.013714 1.141635 2672840
-0.024103 -0.000765 1.130859 2672840
-0.142403 0.123362 1.060122 2672840
-0.172601 -0.156249 1.186158 2672840
-0.127616 0.107872 1.079340 2672840
-0.015724 -0.036147 1.165794 2672840
-0.138563 0.115733 1.062114 2672840
0.089430 0.158249 0.820751 2672840
0.098035 0.152229 0.820774 2672840
0.107541 0.150227 0.821109 2672840
0.114034 0.147306 0.821946 2672840
0.117951 0.143089 0.820754 2672840
0.122536 0.138491 0.821825 2672840
0.126848 0.134862 0.820715 2672840
0.133318 0.130494 0.821518 2672840
0.136819 0.126555 0.818973 2672840
0.143026 0.123885 0.821483 2672840
0.152145 0.115992 0.820848 2672840
0.155986 0.109374 0.818733 2672840
0.159747 0.105366 0.821134 2672840
0.163088 0.100270 0.819771 2672840
-0.137724 -0.095789 1.112640 2672840
0.158631 0.114247 0.935223 2672840
-0.211513 0.144004 0.997776 2672840
-0.096349 0.097554 1.023993 2672840
0.203300 0.094674 0.822686 2672840
0.208225 0.091970 0.821639 2672840
0.213604 0.087405 0.822283 2672840
0.217426 0.082362 0.822149 2672840
0.220153 0.078326 0.821987 2672840
0.224789 0.071829 0.821797 2672840
0.141449 0.130653 0.935221 2672840
0.037983 0.136482 0.955821 2672840
-0.136348 -0.159093 1.140933 2672840
-0.007817 -0.027408 1.145988 2672840
-0.090334 0.085104 1.030086 2672840
-0.076604 0.009005 1.093293 2672840
-0.115457 0.094878 1.087200 2672840
-0.058064 0.012323 1.112205 2672840
-0.102268 0.045837 1.095468 2672840
-0.098352 0.094839 1.040949 2672840
-0.136506 0.117190 1.078740 2672840
-0.144741 0.127932 1.060221 2672840
-0.112522 0.097164 1.059564 2672840
-0.101860 0.099225 1.041471 2672840
0.149130 0.120663 0.823284 2672840
0.157270 0.111324 0.823108 2672840
-0.151360 0.139513 1.058307 2672840
-0.145079 0.153902 1.016214 2672840
-0.149183 0.158511 1.016274 2672840
-0.099240 0.040462 1.095345 2672840
-0.052205 0.003355 1.132737 2672840
-0.133953 0.111904 1.059909 2672840
-0.091303 0.030850 1.093047 2672840
0.148148 0.120204 0.944362 2672840
-0.049826 0.011930 1.128267 2672840
-0.141233 0.131969 1.040688 2672840
-0.145039 0.135395 1.043316 2672840
-0.089379 0.032097 1.112085 2672840
0.090512 0.157261 0.830856 2672840
0.098779 0.153395 0.829872 2672840
0.107930 0.150828 0.829304 2672840
0.114960 0.147843 0.829447 2672840
0.119476 0.143801 0.829415 2672840
0.124733 0.139273 0.829776 2672840
0.127597 0.137058 0.827408 2672840
0.134053 0.133227 0.829437 2672840
0.143569 0.125871 0.828796 2672840
0.150719 0.121992 0.829930 2672840
0.155139 0.117139 0.828794 2672840
0.158680 0.113479 0.830405 2672840
0.162090 0.106736 0.828699 2672840
0.164750 0.101012 0.826751 2672840
-0.139246 0.141333 1.024359 2672840
-0.135811 0.135629 1.024254 2672840
-0.228216 0.107613 1.016418 2672840
0.213430 0.088748 0.830191 2672840
0.218016 0.083219 0.828298 2672840
0.221509 0.079275 0.830535 2672840
0.225683 0.073250 0.830069 2672840
0.227737 0.069336 0.830116 2672840
-0.039991 -0.015826 1.164645 2672840
0.161059 0.115011 0.926429 2672840
-0.016021 -0.026074 1.148166 2672840
-0.129503 0.106760 1.070226 2672840
-0.212593 0.018064 0.938307 2672840
0.187648 0.026293 0.918988 2672840
-0.227993 0.089636 1.016304 2672840
0.161678 -0.043153 0.900481 2672840
-0.168038 -0.096940 1.114059 2672840
0.079169 0.165501 0.833498 2672840
0.139894 0.128511 0.831508 2672840
0.165899 0.102750 0.833049 2672840
-0.082926 0.021846 1.093002 2672840
0.209296 0.091850 0.832501 2672840
0.145321 0.099212 0.982425 2672840
-0.113486 0.106095 1.049250 2672840
-0.035920 -0.020551 1.156872 2672840
-0.146713 -0.021357 1.042185 2672840
-0.199588 0.009578 0.980445 2672840
-0.138986 -0.052773 1.095855 2672840
-0.110456 0.090345 1.064232 2672840
-0.133334 -0.168005 1.155612 2672840
-0.134513 -0.061987 1.121997 2672840
-0.165253 0.114772 0.876274 2672840
0.096564 0.155551 0.835055 2672840
0.102585 0.153725 0.839308 2672840
0.107716 0.150594 0.839343 2672840
0.114171 0.147274 0.838655 2672840
0.118753 0.143961 0.840053 2672840
0.125515 0.139422 0.839516 2672840
0.134833 0.134444 0.839655 2672840
0.140553 0.129521 0.839619 2672840
0.144124 0.127297 0.838851 2672840
0.152025 0.123128 0.840128 2672840
0.155451 0.119391 0.835657 2672840
0.160257 0.114801 0.840053 2672840
0.163838 0.108652 0.836725 2672840
-0.151197 0.147685 1.039305 2672840
0.213832 0.087878 0.838508 2672840
0.221462 0.080401 0.838400 2672840
0.225958 0.073728 0.838184 2672840
0.228071 0.069249 0.839582 2672840
-0.086609 0.027070 1.095171 2672840
-0.148545 0.133399 0.988488 2672840
-0.023080 -0.031755 1.173930 2672840
-0.124517 0.104697 1.088007 2672840
0.175365 -0.009006 0.934526 2672840
-0.144843 0.143874 0.997020 2672840
0.152057 0.115330 0.946279 2672840
-0.042197 -0.007487 1.139724 2672840
0.150749 0.106651 0.961812 2672840
-0.160841 0.147075 1.064793 2672840
-0.225247 0.028087 1.024071 2672840
0.080458 0.167676 0.841436 2672840
0.084018 0.163600 0.838913 2672840
0.089712 0.161499 0.841166 2672840
0.097800 0.157363 0.841283 2672840
0.167358 0.105013 0.841381 2672840
-0.107990 0.101935 1.047450 2672840
-0.081580 0.023820 1.097382 2672840
0.017859 -0.043870 1.147239 2672840
0.004423 -0.049190 1.168062 2672840
-0.024875 -0.020432 1.145934 2672840
-0.153621 0.144161 1.051977 2672840
-0.139550 0.132924 0.998679 2672840
-0.218825 0.027321 0.991830 2672840
-0.040883 0.009128 1.128441 2672840
-0.131760 0.114213 1.079928 2672840
-0.086657 0.079593 1.023675 2672840
-0.115976 0.103637 1.055820 2672840
-0.191181 -0.008031 0.970389 2672840
0.114894 0.138844 0.953499 2672840
0.145250 0.127179 0.848003 2672840
0.173421 0.092583 0.842761 2672840
0.127851 0.118895 0.974733 2672840
0.215875 0.082427 0.849086 2672840
0.220848 0.078488 0.847715 2672840
0.224892 0.072276 0.849256 2672840
0.227894 0.068698 0.846013 2672840
0.165770 0.103448 0.936110 2672840
-0.179910 -0.032778 0.936208 2672840
-0.107041 0.052388 1.104402 2672840
-0.131105 0.114776 1.088448 2672840
-0.013019 -0.039994 1.183593 2672840
-0.046070 -0.003640 1.137018 2672840
-0.061801 0.015752 1.113981 2672840
0.089904 0.164482 0.849485 2672840
0.094015 0.162529 0.849541 2672840
0.098749 0.158817 0.849541 2672840
0.103765 0.155528 0.849547 2672840
0.108814 0.152269 0.849553 2672840
0.114377 0.148012 0.850269 2672840
0.118197 0.143658 0.849102 2672840
0.125090 0.138857 0.849544 2672840
0.134511 0.134046 0.849699 2672840
0.141776 0.129616 0.850441 2672840
0.152370 0.122957 0.849857 2672840
0.161386 0.114872 0.849774 2672840
0.168044 0.106019 0.849533 2672840
0.171946 0.096895 0.849509 2672840
0.173576 0.092853 0.846844 2672840
-0.232874 0.071591 1.024440 2672840
-0.224882 0.062280 1.077837 2672840
-0.007576 -0.016424 1.137357 2672840
-0.035578 0.006303 1.124229 2672840
-0.042853 -0.010250 1.018704 2672840
-0.163280 0.154036 1.049928 2672840
-0.135582 0.135980 1.015755 2672840
0.131237 0.137864 0.934528 2672840
-0.007342 -0.044974 1.183593 2672840
-0.007499 -0.023920 1.126065 2672840
-0.124528 0.119859 1.000770 2672840
-0.151335 0.157929 1.001472 2672840
-0.139315 0.141431 1.007481 2672840
0.164727 0.107168 0.932221 2672840
-0.099454 0.040188 1.101912 2672840
0.229922 0.062833 0.847754 2672840
0.016642 -0.047262 1.155012 2672840
0.125608 0.141339 0.936114 2672840
0.176979 -0.018608 0.909680 2672840
0.126363 0.135059 0.946703 2672840
0.168945 -0.033568 0.909026 2672840
-0.215672 0.010727 1.008249 2672840
-0.042308 0.008627 1.122234 2672840
-0.025359 -0.010539 1.137261 2672840
-0.122416 0.113829 1.049130 2672840
-0.136777 0.126256 1.041036 2672840
-0.092042 0.090443 1.023795 2672840
-0.130407 0.121998 1.000398 2672840
-0.054538 0.005022 1.106307 2672840
0.088845 0.165642 0.857576 2672840
0.094229 0.162917 0.857705 2672840
0.099632 0.160188 0.857720 2672840
0.106040 0.156273 0.857771 2672840
0.110489 0.153018 0.857112 2672840
0.116137 0.149748 0.858504 2672840
0.119695 0.144261 0.855624 2672840
0.124340 0.140447 0.858307 2672840
0.127496 0.137066 0.855569 2672840
0.133861 0.133158 0.857674 2672840
0.141941 0.129033 0.857806 2672840
0.146161 0.127245 0.857896 2672840
0.152162 0.122725 0.857898 2672840
0.161089 0.114514 0.857813 2672840
0.168036 0.106072 0.857609 2672840
0.171968 0.098571 0.857321 2672840
0.174260 0.093864 0.857068 2672840
0.165964 -0.023197 0.934478 2672840
-0.071635 0.015694 1.139901 2672840
0.221692 0.070426 0.857356 2672840
0.225997 0.062462 0.858182 2672840
0.138414 0.127167 0.948382 2672840
0.013611 -0.041099 1.150563 2672840
-0.118009 0.118921 1.005009 2672840
-0.138376 -0.114036 1.122549 2672840
0.183901 -0.000643 0.910232 2672840
-0.137596 0.116676 0.988029 2672840
-0.019472 -0.012561 1.137327 2672840
-0.052196 0.008512 1.112970 2672840
-0.140049 0.079703 0.837444 2672840
-0.145029 0.127668 1.070949 2672840
-0.000736 -0.038250 1.154811 2672840
-0.218164 0.063069 0.926675 2672840
-0.207849 0.062838 0.970899 2672840
-0.225416 0.045521 0.992865 2672840
0.156391 -0.048582 0.902044 2672840
-0.208267 0.001250 1.007646 2672840
-0.039877 -0.077388 0.918732 2672840
-0.098324 0.086954 1.048863 2672840
-0.034165 -0.043756 1.184664 2672840
-0.164258 -0.133188 1.147584 2672840
-0.037446 -0.011999 1.176930 2672840
-0.002131 -0.029701 1.146087 2672840
0.120330 0.127356 0.963861 2672840
-0.049922 0.011916 1.120746 2672840
-0.000536 -0.019368 1.137423 2672840
-0.024483 -0.026404 1.183908 2672840
0.024002 -0.063470 1.158744 2672840
-0.136240 0.124146 0.997107 2672840
-0.143221 0.130076 0.992043 2672840
0.089172 0.166189 0.865653 2672840
0.094967 0.164072 0.865813 2672840
0.099857 0.160597 0.865815 2672840
0.108165 0.156820 0.865942 2672840
0.117808 0.151117 0.865786 2672840
0.126007 0.141841 0.865619 2672840
0.134506 0.134155 0.865155 2672840
0.141023 0.130417 0.866930 2672840
0.145042 0.127416 0.865257 2672840
0.152022 0.123716 0.865739 2672840
0.161122 0.114610 0.865885 2672840
0.168013 0.106120 0.865689 2672840
0.172459 0.099311 0.865471 2672840
0.174983 0.094981 0.865282 2672840
0.178171 0.088951 0.864990 2672840
0.181645 0.081528 0.865288 2672840
0.135824 0.118160 0.963114 2672840
0.118623 0.135465 0.955140 2672840
-0.133307 0.120740 1.047357 2672840
0.006602 -0.029786 1.133595 2672840
-0.193571 0.007708 1.094259 2672840
-0.147983 0.141756 1.041309 2672840
-0.095364 0.122843 0.857907 2672840
-0.197652 -0.014933 0.929156 2672840
0.137962 0.100180 0.992076 2672840
-0.143305 0.146082 1.001277 2672840
0.114136 0.154896 0.868168 2672840
0.123166 0.146771 0.868061 2672840
0.131172 0.137209 0.867901 2672840
0.156355 0.120975 0.868090 2672840
-0.221660 0.043835 1.053369 2672840
-0.178027 -0.145212 1.174938 2672840
-0.148269 0.062014 0.833194 2672840
0.180545 -0.009619 0.909964 2672840
-0.099546 0.103504 1.013424 2672840
-0.140259 -0.105362 1.112691 2672840
-0.033568 -0.051421 0.980607 2672840
-0.137168 -0.167894 1.139526 2672840
-0.194425 0.080982 0.882646 2672840
-0.185578 -0.002284 1.093752 2672840
-0.046493 0.006239 1.115277 2672840
-0.035357 -0.002522 1.115517 2672840
-0.021132 -0.030816 1.159119 2672840
-0.028496 -0.020103 1.185822 2672840
-0.143541 0.129572 1.047456 2672840
0.181013 -0.001246 0.927329 2672840
0.157089 0.085540 0.979788 2672840
0.107374 -0.026025 1.006878 2672840
0.090069 0.167590 0.873872 2672840
0.096620 0.164777 0.874670 2672840
0.099879 0.162463 0.873328 2672840
0.108199 0.159578 0.874203 2672840
0.114549 0.155548 0.874278 2672840
0.118012 0.152623 0.874245 2672840
0.123550 0.148474 0.874636 2672840
0.127640 0.142728 0.873078 2672840
0.132585 0.139392 0.875179 2672840
0.136702 0.136542 0.873503 2672840
0.143318 0.132308 0.873899 2672840
0.151776 0.124931 0.874142 2672840
0.157414 0.120794 0.874835 2672840
0.162104 0.114948 0.873730 2672840
0.168120 0.106333 0.873781 2672840
0.172681 0.099762 0.873597 2672840
0.175158 0.095333 0.873407 2672840
0.178652 0.089089 0.874645 2672840
0.181811 0.082279 0.873790 2672840
-0.216535 0.089365 1.061451 2672840
0.156432 -0.006936 0.978438 2672840
-0.137438 -0.035966 1.094697 2672840
-0.108062 0.069008 1.095510 2672840
-0.120073 0.099276 1.071108 2672840
-0.140038 0.124182 1.049445 2672840
-0.124321 0.120548 1.039050 2672840
-0.086059 -0.032282 1.013976 2672840
0.147782 0.129738 0.876265 2672840
0.183559 0.078206 0.876621 2672840
0.186138 0.071322 0.876249 2672840
0.188604 0.062271 0.875750 2672840
-0.104659 0.071934 1.067736 2672840
0.044042 -0.058848 0.978966 2672840
-0.066082 0.012022 1.101879 2672840
-0.071391 0.023073 1.115160 2672840
-0.094515 0.027511 1.085166 2672840
-0.163620 -0.124027 1.130727 2672840
0.173401 0.063794 0.958368 2672840
-0.134260 -0.068989 1.122771 2672840
0.090275 0.167891 0.883989 2672840
0.099453 0.165446 0.882249 2672840
0.107489 0.161251 0.882361 2672840
0.113588 0.156863 0.882384 2672840
0.118689 0.153693 0.882423 2672840
0.124980 0.149606 0.882446 2672840
0.129164 0.145056 0.882372 2672840
0.134407 0.140586 0.882054 2672840
0.143705 0.134461 0.882427 2672840
0.149207 0.130081 0.883071 2672840
0.152999 0.125716 0.881917 2672840
0.157941 0.120714 0.882248 2672840
0.162860 0.114670 0.882119 2672840
0.168505 0.106945 0.883921 2672840
0.172904 0.100079 0.883706 2672840
0.175248 0.095602 0.883543 2672840
0.178104 0.089876 0.884433 2672840
-0.086443 0.016855 1.087467 2672840
-0.089814 0.025203 1.088631 2672840
-0.124231 0.103136 1.069986 2672840
-0.144397 0.128298 1.051683 2672840
0.001675 -0.063842 0.962322 2672840
0.186792 0.026286 0.927358 2672840
0.176075 0.088093 0.927378 2672840
-0.127037 0.108820 1.085886 2672840
-0.182957 -0.070026 1.130973 2672840
0.183241 0.011324 0.933430 2672840
0.138766 0.137889 0.884408 2672840
0.181587 0.083560 0.885029 2672840
0.183808 0.078703 0.884786 2672840
0.186727 0.071194 0.885046 2672840
0.188481 0.064140 0.883992 2672840
0.189674 0.044718 0.884835 2672840
0.174350 0.042764 0.962601 2672840
-0.132974 0.111631 1.071459 2672840
-0.229829 0.080568 1.032696 2672840
0.182825 0.014326 0.937621 2672840
-0.022922 -0.031601 1.166511 2672840
0.180775 0.080290 0.918531 2672840
-0.142032 0.141007 0.999744 2672840
-0.135075 -0.095998 1.134546 2672840
0.098368 0.164982 0.889851 2672840
0.107481 0.160250 0.892804 2672840
0.114950 0.156283 0.892434 2672840
0.119587 0.153782 0.891544 2672840
0.125162 0.149942 0.892578 2672840
0.129479 0.145585 0.892510 2672840
0.134293 0.140944 0.892460 2672840
0.138829 0.138008 0.888465 2672840
0.143596 0.134376 0.892494 2672840
0.149703 0.129993 0.892507 2672840
0.153981 0.125642 0.892450 2672840
0.156800 0.121772 0.892343 2672840
0.161648 0.115605 0.892200 2672840
0.189170 0.053212 0.885008 2672840
-0.216251 0.018091 1.052334 2672840
0.163097 0.090745 0.962514 2672840
-0.119153 0.109592 1.051656 2672840
0.156674 0.111477 0.944249 2672840
0.128605 0.098686 1.000503 2672840
-0.189528 0.002270 1.093800 2672840
-0.115324 0.094977 1.080021 2672840
-0.090576 0.031917 1.097418 2672840
-0.183628 0.034958 0.858154 2672840
-0.157213 0.157478 1.033104 2672840
0.090338 0.165468 0.893942 2672840
0.099935 0.162690 0.894893 2672840
0.169635 0.106161 0.893990 2672840
0.173959 0.099111 0.893797 2672840
0.175978 0.095022 0.894318 2672840
0.178948 0.089269 0.892976 2672840
0.181897 0.083530 0.893257 2672840
0.183768 0.078760 0.893360 2672840
0.186333 0.071421 0.892884 2672840
0.188020 0.062688 0.892854 2672840
0.071840 -0.055616 0.973884 2672840
0.159794 0.105441 0.946102 2672840
0.164077 0.099282 0.946645 2672840
-0.150969 0.147804 0.992490 2672840
-0.006751 -0.023156 1.141782 2672840
0.112076 0.110226 0.999771 2672840
-0.191367 0.149868 0.998709 2672840
0.138053 0.136906 0.896428 2672840
-0.177470 -0.150897 1.185891 2672840
0.147001 0.118527 0.948313 2672840
0.119401 0.110300 0.991890 2672840
-0.109158 0.100281 1.051626 2672840
-0.202426 -0.008467 0.928586 2672840
-0.136754 -0.132001 1.141512 2672840
-0.221265 0.044246 1.094244 2672840
-0.139362 -0.158316 1.131546 2672840
0.126203 0.108520 0.990369 2672840
-0.031901 -0.041751 1.189806 2672840
0.074975 0.172213 0.899699 2672840
0.081382 0.169467 0.901547 2672840
0.087402 0.165651 0.902545 2672840
0.092101 0.162759 0.901920 2672840
0.114362 0.155540 0.900526 2672840
0.117288 0.153427 0.902935 2672840
0.124254 0.148731 0.902569 2672840
0.129359 0.145495 0.902585 2672840
0.133769 0.141299 0.902538 2672840
0.137406 0.136032 0.902390 2672840
0.142843 0.133328 0.902471 2672840
0.149470 0.129753 0.902562 2672840
0.153666 0.125244 0.902485 2672840
0.156579 0.121485 0.902391 2672840
0.161476 0.115407 0.902263 2672840
0.169523 0.105983 0.902072 2672840
0.173941 0.099074 0.901865 2672840
0.175420 0.096045 0.901748 2672840
0.178980 0.089545 0.901237 2672840
0.181910 0.083704 0.902200 2672840
-0.183264 0.149161 0.990843 2672840
-0.230879 0.081201 1.024866 2672840
-0.026075 -0.029127 1.165011 2672840
-0.118265 0.118759 1.034871 2672840
-0.012636 -0.039395 1.190271 2672840
-0.015992 -0.053683 1.156818 2672840
-0.177930 -0.019095 0.974169 2672840
0.172582 -0.027549 0.909319 2672840
0.013814 -0.048763 1.159287 2672840
-0.021614 -0.031316 1.181373 2672840
-0.144661 0.152787 1.007064 2672840
0.154549 0.092481 0.975897 2672840
0.166691 0.096043 0.945215 2672840
-0.183157 0.106333 0.962745 2672840
-0.100733 0.101637 1.004733 2672840
-0.133570 0.130893 1.009296 2672840
-0.217877 0.044412 1.069452 2672840
-0.172359 0.061900 0.850383 2672840
0.183223 0.002349 0.924956 2672840
-0.029460 -0.021810 1.150206 2672840
-0.151635 0.122486 0.982695 2672840
-0.146671 -0.042250 0.963189 2672840
-0.011324 -0.021874 1.141728 2672840
0.184041 0.000860 0.918672 2672840
0.165041 0.091749 0.955854 2672840
0.080767 0.170127 0.909840 2672840
0.088699 0.165829 0.910011 2672840
0.093247 0.161846 0.909989 2672840
0.123958 0.148390 0.910602 2672840
0.129120 0.145228 0.910627 2672840
0.133287 0.140701 0.910543 2672840
0.137392 0.136061 0.910455 2672840
0.143002 0.133674 0.910552 2672840
0.150049 0.130669 0.910710 2672840
0.154133 0.125995 0.910616 2672840
0.157607 0.121361 0.911179 2672840
0.161916 0.114976 0.910038 2672840
0.168235 0.106782 0.910130 2672840
0.172692 0.100103 0.909927 2672840
0.175022 0.095536 0.909763 2672840
0.178187 0.089499 0.909527 2672840
0.139257 0.128385 0.944454 2672840
0.154529 0.100469 0.963951 2672840
-0.126635 0.127697 1.024254 2672840
-0.019985 -0.029163 1.154727 2672840
0.102925 0.154765 0.912037 2672840
0.053420 -0.055649 0.981963 2672840
-0.213321 0.032373 1.085940 2672840
0.155721 0.110071 0.948228 2672840
-0.131649 0.131000 1.024209 2672840
-0.165055 -0.051102 1.085778 2672840
-0.173586 -0.149793 1.177008 2672840
0.129769 0.135750 0.940397 2672840
0.174299 -0.024558 0.909459 2672840
-0.144395 0.144379 1.032903 2672840
0.092286 0.162275 0.918698 2672840
0.098190 0.158497 0.918079 2672840
0.102435 0.154088 0.917985 2672840
0.124277 0.147099 0.917929 2672840
0.127457 0.144630 0.919255 2672840
0.132720 0.139921 0.918533 2672840
0.137359 0.136131 0.918518 2672840
0.143142 0.133965 0.918657 2672840
0.149785 0.130328 0.918736 2672840
0.154017 0.125892 0.918669 2672840
0.158000 0.121066 0.918571 2672840
0.162484 0.114412 0.918386 2672840
0.167787 0.106307 0.918146 2672840
0.172232 0.097914 0.918255 2672840
0.174320 0.094575 0.915719 2672840
0.177125 0.088472 0.917661 2672840
-0.183450 -0.000874 1.104177 2672840
-0.180230 -0.035839 1.128492 2672840
-0.179346 -0.000923 1.112475 2672840
-0.109545 0.110303 1.034766 2672840
-0.109580 0.109995 1.004856 2672840
-0.174868 -0.014910 1.059267 2672840
-0.024734 -0.040722 0.996063 2672840
-0.182413 -0.052161 1.132095 2672840
-0.049387 -0.005809 1.141368 2672840
-0.132912 0.081777 0.836485 2672840
0.021565 -0.068906 1.165551 2672840
0.185067 0.053260 0.927275 2672840
-0.137423 -0.096002 1.141566 2672840
-0.178229 -0.018854 1.095708 2672840
0.140773 0.122739 0.952260 2672840
-0.210494 0.017033 0.990624 2672840
-0.231398 0.052924 1.007118 2672840
-0.171220 -0.156756 1.191597 2672840
0.123670 0.111160 0.987897 2672840
-0.163344 -0.022143 1.033089 2672840
0.036998 -0.094534 0.934662 2672840
-0.086215 0.010007 1.087365 2672840
-0.138585 -0.078043 1.103118 2672840
0.011342 -0.077559 1.175079 2672840
-0.217969 0.107310 1.069797 2672840
0.122680 0.146582 0.924557 2672840
0.149012 0.129250 0.924695 2672840
0.156569 0.121669 0.924593 2672840
-0.100006 0.039499 1.106265 2672840
-0.140536 -0.061943 1.095306 2672840
-0.100879 0.101724 1.034718 2672840
-0.158847 0.155119 1.039338 2672840
-0.226830 0.044479 1.042701 2672840
-0.038284 -0.013248 1.172484 2672840
-0.052566 -0.065393 0.937201 2672840
-0.016637 -0.017539 1.122126 2672840
0.015694 -0.044137 1.142220 2672840
-0.134850 -0.102000 1.129794 2672840
-0.134909 0.110494 1.064196 2672840
-0.156053 -0.044002 0.937523 2672840
-0.177485 -0.025211 1.095672 2672840
0.020534 -0.069553 1.157847 2672840
-0.174038 -0.036682 0.936920 2672840
-0.147247 -0.037227 0.971985 2672840
0.001569 -0.033501 1.132470 2672840
-0.198474 0.010328 1.076634 2672840
0.116052 -0.001770 0.759355 2672840
0.111029 -0.010016 0.758091 2672840
0.108686 -0.018261 0.758919 2672840
0.106989 -0.027249 0.758749 2672840
0.105792 -0.035661 0.758997 2672840
0.100470 -0.036864 0.754480 2672840
0.100559 -0.042973 0.756111 2672840
0.113466 0.121023 0.762058 2672840
0.114892 0.115431 0.761578 2672840
0.116817 0.107473 0.761441 2672840
-0.166851 -0.079473 1.093755 2672840
-0.138421 -0.086995 1.141563 2672840
-0.132536 -0.177120 1.164597 2672840
-0.148262 0.072180 0.836744 2672840
-0.129064 -0.053635 0.938266 2672840
0.176290 0.026309 0.768733 2672840
0.170596 0.017698 0.767366 2672840
0.169271 0.009742 0.769624 2672840
0.163419 0.010233 0.766618 2672840
0.114766 -0.007660 0.761941 2672840
0.104426 -0.043774 0.760553 2672840
0.099121 -0.053019 0.760889 2672840
0.082821 -0.027125 1.018131 2672840
0.116839 -0.059781 0.944708 2672840
-0.134356 -0.086993 1.129839 2672840
0.120226 0.115183 0.766785 2672840
0.124447 0.106413 0.768223 2672840
-0.216144 0.044947 0.954876 2672840
-0.136626 -0.053956 1.104054 2672840
-0.138880 -0.158752 1.174956 2672840
-0.226916 0.098660 1.008255 2672840
-0.183242 -0.015622 1.023171 2672840
-0.155652 -0.022006 1.014324 2672840
0.187313 0.035813 0.773761 2672840
0.185349 0.026520 0.773707 2672840
0.181143 0.017587 0.773239 2672840
0.176705 0.011609 0.772715 2672840
0.167713 0.002933 0.772166 2672840
0.160556 0.002002 0.769776 2672840
-0.093880 0.035972 1.058856 2672840
0.119279 -0.009569 0.766093 2672840
0.115930 -0.018290 0.768330 2672840
0.111199 -0.027311 0.765528 2672840
0.110302 -0.036914 0.767150 2672840
0.108749 -0.043835 0.767417 2672840
0.106431 -0.050626 0.768249 2672840
0.103345 -0.051357 0.764715 2672840
0.096915 -0.057500 0.764007 2672840
0.090045 -0.060375 0.760620 2672840
0.018566 -0.089140 0.939486 2672840
-0.218165 0.114896 0.988791 2672840
-0.136595 -0.105038 1.122627 2672840
-0.033140 -0.063738 0.963087 2672840
-0.231403 0.062670 1.006101 2672840
0.121930 0.119646 0.771297 2672840
0.124616 0.113670 0.771533 2672840
-0.218935 0.035388 0.988446 2672840
-0.165932 -0.034065 1.081395 2672840
-0.096448 0.062932 1.058760 2672840
-0.139091 -0.168658 1.183860 2672840
-0.136351 -0.044955 1.104099 2672840
-0.133810 -0.168002 1.165071 2672840
-0.200397 0.000004 1.050858 2672840
0.194662 0.053065 0.778629 2672840
0.195142 0.043843 0.778187 2672840
0.196618 0.035462 0.779164 2672840
0.194587 0.026514 0.779027 2672840
0.192114 0.020611 0.778930 2672840
0.188973 0.016116 0.778427 2672840
0.184778 0.009040 0.779825 2672840
0.178142 0.007202 0.777218 2672840
0.170011 -0.000593 0.776726 2672840
0.134924 -0.045266 0.954891 2672840
-0.211490 0.009019 1.042797 2672840
0.125833 -0.008015 0.768611 2672840
0.114090 -0.027327 0.770186 2672840
0.112516 -0.033303 0.770044 2672840
0.099148 -0.059683 0.769879 2672840
0.072530 -0.027250 1.019295 2672840
-0.215922 0.071141 0.936741 2672840
-0.224714 0.028200 1.007838 2672840
-0.222324 0.023709 1.007760 2672840
-0.137304 -0.141003 1.155654 2672840
0.020556 -0.080889 1.175406 2672840
-0.097293 0.026977 1.067958 2672840
-0.133943 -0.177406 1.174476 2672840
-0.172631 0.087008 0.859404 2672840
-0.098052 0.071851 1.056954 2672840
-0.187359 0.100779 0.973128 2672840
0.205214 0.053406 0.786077 2672840
0.205589 0.044408 0.785709 2672840
0.205475 0.035418 0.786225 2672840
0.203388 0.026449 0.786111 2672840
0.197518 0.017528 0.783437 2672840
0.196656 0.009476 0.786713 2672840
0.189079 0.007460 0.783106 2672840
0.147219 -0.038952 0.946036 2672840
-0.050742 -0.037479 0.999405 2672840
0.140998 -0.041582 0.954252 2672840
0.126654 -0.016044 0.778494 2672840
0.119553 -0.019856 0.775117 2672840
0.117418 -0.028000 0.776432 2672840
0.115916 -0.035748 0.776375 2672840
0.114910 -0.042975 0.777112 2672840
0.110749 -0.051310 0.774228 2672840
0.107507 -0.059303 0.777534 2672840
0.100632 -0.062848 0.776386 2672840
0.002043 -0.087796 0.938100 2672840
-0.136889 -0.061458 1.103997 2672840
-0.140213 -0.131665 1.157262 2672840
-0.138117 -0.132017 1.131984 2672840
-0.070316 -0.028492 1.156443 2672840
-0.211692 0.071800 0.985977 2672840
-0.201409 0.149397 0.998724 2672840
-0.213984 0.065772 0.985440 2672840
-0.164874 -0.114973 1.122327 2672840
-0.095227 0.026996 1.058757 2672840
-0.050871 -0.000680 1.107105 2672840
0.209486 0.044387 0.788727 2672840
0.203452 0.017517 0.788312 2672840
0.187872 0.000402 0.787103 2672840
0.143009 -0.042021 0.945227 2672840
0.125728 -0.050491 0.954600 2672840
0.046711 -0.031833 1.012617 2672840
0.122278 -0.024319 0.779809 2672840
0.113570 -0.051395 0.778774 2672840
0.101775 -0.047320 0.973785 2672840
-0.050393 -0.087781 0.757652 2672840
-0.156612 0.088839 0.849762 2672840
-0.175186 -0.060884 1.105914 2672840
-0.201510 0.008607 1.068921 2672840
-0.227444 0.098610 1.016355 2672840
-0.135186 -0.086997 1.134519 2672840
0.011123 -0.043147 1.139151 2672840
-0.134600 -0.160500 1.162716 2672840
-0.208133 0.123297 0.983412 2672840
-0.105310 0.062921 1.076967 2672840
0.019956 -0.059999 1.149495 2672840
0.214031 0.062387 0.795375 2672840
0.215310 0.053971 0.795086 2672840
0.214457 0.044368 0.793367 2672840
0.214748 0.034638 0.794621 2672840
0.213865 0.026395 0.795525 2672840
0.208145 0.017447 0.792819 2672840
0.205018 0.008604 0.794750 2672840
0.200104 0.005697 0.792238 2672840
0.195619 -0.000166 0.793417 2672840
0.189695 -0.003376 0.791449 2672840
0.045554 -0.045269 0.999900 2672840
0.134345 -0.017090 0.785821 2672840
0.128533 -0.027274 0.785033 2672840
0.124368 -0.034773 0.784568 2672840
0.118038 -0.042529 0.783229 2672840
0.115337 -0.051540 0.785330 2672840
0.108162 -0.061134 0.785569 2672840
0.143450 -0.044795 0.937567 2672840
0.205658 0.010665 0.856490 2672840
0.214311 0.000185 0.830775 2672840
-0.015933 -0.061134 0.972183 2672840
-0.138106 -0.060298 1.132065 2672840
-0.120984 0.113288 0.851372 2672840
-0.141802 -0.141777 1.124472 2672840
-0.111502 0.080998 1.095438 2672840
-0.097501 0.008372 1.050879 2672840
-0.089602 0.027906 1.047879 2672840
-0.097813 0.026973 1.077159 2672840
-0.042377 -0.057899 0.969654 2672840
-0.140306 -0.123256 1.121973 2672840
-0.059993 -0.000435 1.101903 2672840
-0.136490 -0.035955 1.104114 2672840
0.218530 0.050347 0.798008 2672840
0.218872 0.044348 0.798030 2672840
0.218592 0.036857 0.798074 2672840
0.213328 0.017459 0.797622 2672840
0.209904 0.011543 0.797309 2672840
0.201872 0.002721 0.796587 2672840
0.192076 -0.006212 0.795989 2672840
0.142110 -0.014444 0.787824 2672840
0.133861 -0.027344 0.789647 2672840
0.131076 -0.036296 0.789502 2672840
0.127278 -0.043641 0.789324 2672840
0.062757 -0.042523 1.005618 2672840
0.001291 -0.066532 0.953100 2672840
0.046039 -0.097301 0.927915 2672840
-0.024971 -0.060086 0.972402 2672840
-0.224020 0.028077 1.032282 2672840
-0.136092 -0.077985 1.134555 2672840
-0.135983 -0.149992 1.155654 2672840
0.024338 -0.072153 1.164786 2672840
-0.217633 0.044274 1.102230 2672840
-0.142036 -0.131721 1.121667 2672840
-0.107618 0.071998 1.076997 2672840
-0.204441 -0.001946 0.938446 2672840
-0.148054 0.096976 0.849263 2672840
-0.144413 -0.140496 1.119129 2672840
-0.183902 0.139570 0.981984 2672840
-0.232142 0.055143 1.010145 2672840
0.221565 0.062340 0.804571 2672840
0.222962 0.053331 0.804718 2672840
0.223478 0.044328 0.804721 2672840
0.222920 0.035330 0.804728 2672840
0.221221 0.026354 0.804576 2672840
0.219362 0.019354 0.805078 2672840
0.216558 0.015387 0.803408 2672840
0.213090 0.009054 0.804216 2672840
0.208833 0.005550 0.801342 2672840
0.204958 0.000169 0.803445 2672840
0.199439 -0.003334 0.800406 2672840
0.194905 -0.007731 0.802871 2672840
-0.041897 -0.017952 1.014597 2672840
0.081538 -0.060777 0.953715 2672840
0.137652 -0.056759 0.920498 2672840
0.143085 -0.018709 0.796251 2672840
0.137597 -0.027429 0.794118 2672840
0.136579 -0.035432 0.795451 2672840
0.134938 -0.042398 0.796080 2672840
0.127315 -0.052388 0.795495 2672840
0.119141 -0.054743 0.792229 2672840
0.152429 -0.035213 0.945476 2672840
0.019949 -0.036339 1.008567 2672840
0.011562 -0.035421 1.007811 2672840
0.028445 -0.095623 0.934208 2672840
0.172666 -0.019139 0.929405 2672840
-0.136763 -0.104999 1.141575 2672840
-0.162901 0.066684 0.842580 2672840
-0.092389 0.027013 1.051866 2672840
-0.215056 0.089820 0.992508 2672840
-0.132523 -0.007271 1.086036 2672840
-0.098873 0.010537 1.056312 2672840
0.122838 -0.007267 1.011726 2672840
-0.067318 -0.083950 0.751387 2672840
0.141253 -0.027411 0.798893 2672840
0.139210 -0.033462 0.798510 2672840
0.132370 -0.049807 0.798083 2672840
0.142777 -0.016781 0.988572 2672840
-0.015150 -0.028180 1.009761 2672840
-0.007142 -0.032609 1.005372 2672840
0.126132 -0.027482 0.990726 2672840
0.027439 -0.070932 0.759879 2672840
-0.111326 -0.041125 0.995895 2672840
0.117472 0.000245 1.018836 2672840
0.024323 -0.077017 1.172376 2672840
-0.218556 0.124015 0.989937 2672840
-0.108088 0.078020 1.074708 2672840
-0.103227 0.080835 1.059585 2672840
-0.156676 -0.007966 0.752547 2672840
-0.148329 -0.025712 1.077393 2672840
-0.110523 0.071491 1.105080 2672840
-0.165652 -0.114944 1.113957 2672840
-0.101549 0.008309 1.059696 2672840
-0.205146 0.135144 0.985494 2672840
0.225469 0.062921 0.812935 2672840
0.226080 0.053321 0.811301 2672840
0.226666 0.044311 0.811341 2672840
0.226102 0.034550 0.812348 2672840
0.224636 0.026297 0.813233 2672840
0.221311 0.017324 0.812923 2672840
0.215567 0.007801 0.811981 2672840
0.211564 0.001438 0.812695 2672840
0.207185 -0.002529 0.810835 2672840
0.035190 -0.047732 0.993855 2672840
-0.221478 0.024683 0.998934 2672840
0.150863 -0.017459 0.804039 2672840
0.146879 -0.021330 0.803789 2672840
0.144859 -0.027464 0.804530 2672840
0.143006 -0.034089 0.805781 2672840
0.139893 -0.041858 0.805521 2672840
0.137587 -0.045483 0.802725 2672840
0.135020 -0.051498 0.804621 2672840
0.126475 -0.059448 0.803293 2672840
0.002430 -0.028451 1.009848 2672840
0.150201 -0.015847 0.980742 2672840
0.133872 -0.036011 0.972231 2672840
0.196019 0.010911 0.856207 2672840
0.034520 -0.067130 0.949950 2672840
-0.033441 -0.009999 1.018332 2672840
-0.136780 -0.140996 1.141479 2672840
-0.130878 0.106052 0.848309 2672840
-0.068159 0.008977 1.098291 2672840
-0.182320 0.096173 0.877010 2672840
0.024638 -0.075692 1.167765 2672840
-0.108748 0.083952 1.069992 2672840
0.226955 0.059322 0.815550 2672840
0.227649 0.053313 0.815612 2672840
0.228146 0.044296 0.815631 2672840
0.227698 0.036801 0.815640 2672840
0.218481 0.011288 0.814697 2672840
0.009076 -0.019846 1.017306 2672840
0.011442 -0.043617 0.998535 2672840
-0.225172 0.028112 1.015935 2672840
0.154116 -0.019651 0.810946 2672840
0.148276 -0.024531 0.807956 2672840
0.130641 -0.057494 0.806352 2672840
0.001496 -0.034742 1.006053 2672840
-0.042968 -0.054117 0.974064 2672840
0.072686 -0.045717 1.000185 2672840
0.011185 -0.025056 1.014516 2672840
-0.140932 -0.069066 1.139874 2672840
-0.175876 0.090284 0.863969 2672840
-0.193528 -0.009592 0.962049 2672840
0.228373 0.062320 0.821928 2672840
0.229899 0.053298 0.822059 2672840
0.230562 0.044283 0.822117 2672840
0.229951 0.035277 0.822073 2672840
0.228104 0.026901 0.822346 2672840
0.226039 0.023287 0.819611 2672840
0.224408 0.017324 0.821555 2672840
0.220015 0.009833 0.821130 2672840
0.217077 0.005373 0.820858 2672840
0.212574 -0.000942 0.822512 2672840
0.209151 -0.003400 0.818058 2672840
0.107256 -0.040588 0.988098 2672840
0.159546 -0.015539 0.811952 2672840
0.150554 -0.028008 0.814243 2672840
0.145785 -0.035505 0.813400 2672840
0.141798 -0.042548 0.813734 2672840
0.136091 -0.051579 0.813218 2672840
0.130167 -0.057405 0.810575 2672840
-0.024386 -0.010054 1.018848 2672840
-0.015793 -0.007634 1.021545 2672840
0.072954 -0.040707 1.006680 2672840
0.124958 -0.068646 0.901129 2672840
-0.059247 -0.041402 0.996849 2672840
0.027104 -0.019101 1.026627 2672840
-0.226951 0.035556 1.032366 2672840
-0.137154 -0.123015 1.132053 2672840
-0.185114 0.098705 0.882635 2672840
-0.201951 0.063044 0.884405 2672840
-0.213854 0.024054 0.934371 2672840
-0.100775 0.072224 1.060590 2672840
-0.109636 0.064761 1.105014 2672840
0.227232 0.068284 0.823948 2672840
-0.034697 -0.084558 0.760639 2672840
-0.140688 -0.028173 0.997455 2672840
-0.232257 0.077625 1.018341 2672840
0.161569 -0.017353 0.820264 2672840
0.155041 -0.027282 0.819495 2672840
0.149111 -0.033366 0.816669 2672840
0.127082 -0.060023 0.812207 2672840
0.122709 -0.066523 0.814061 2672840
-0.006751 -0.102284 0.925792 2672840
-0.005857 -0.027703 1.009260 2672840
-0.207574 0.010474 1.060155 2672840
0.002943 -0.059605 0.971913 2672840
-0.006779 -0.097896 0.930324 2672840
-0.210968 0.132995 0.987657 2672840
-0.222911 0.127934 0.996231 2672840
-0.107371 0.062947 1.086231 2672840
-0.096889 0.044963 1.067973 2672840
-0.101807 0.053945 1.077081 2672840
-0.033200 0.157796 0.754983 2672840
-0.174523 0.133620 0.979377 2672840
0.172415 0.082267 0.948355 2672840
0.229877 0.062318 0.830377 2672840
0.231782 0.053297 0.830539 2672840
0.232693 0.044269 0.830617 2672840
0.232395 0.035249 0.830585 2672840
0.230255 0.026243 0.830432 2672840
0.227919 0.019239 0.830866 2672840
0.225822 0.015330 0.829301 2672840
0.220858 0.008282 0.829526 2672840
-0.105209 -0.054246 0.964461 2672840
0.158481 -0.026807 0.824302 2672840
0.152419 -0.034856 0.823319 2672840
0.143811 -0.043097 0.821988 2672840
0.135909 -0.052173 0.821234 2672840
0.131052 -0.058518 0.821913 2672840
0.127230 -0.062499 0.820154 2672840
0.123787 -0.068022 0.820599 2672840
0.081359 -0.082328 0.930459 2672840
0.123744 -0.041410 0.970977 2672840
-0.006315 -0.018200 1.017282 2672840
-0.051704 -0.054704 0.972648 2672840
-0.149951 -0.047647 0.922590 2672840
-0.201281 0.017263 1.085709 2672840
-0.136504 -0.114001 1.141575 2672840
-0.135069 -0.156008 1.155627 2672840
-0.206357 0.002057 0.937218 2672840
0.072374 -0.018427 1.026168 2672840
-0.102823 -0.021799 1.021413 2672840
-0.138767 -0.026652 1.085667 2672840
-0.218800 0.107367 1.061547 2672840
-0.224399 0.063526 0.992430 2672840
-0.105326 0.109022 0.844303 2672840
-0.222197 0.081030 1.076916 2672840
-0.221484 0.025641 1.043139 2672840
0.169888 -0.009670 0.829453 2672840
0.166655 -0.017884 0.831732 2672840
0.164176 -0.020426 0.827922 2672840
0.149889 -0.039387 0.825165 2672840
0.139245 -0.048706 0.823975 2672840
0.145208 -0.026927 0.973338 2672840
0.132585 -0.058246 0.926662 2672840
-0.230097 0.044678 1.008042 2672840
-0.182459 0.113951 0.974934 2672840
-0.155033 -0.165719 1.173426 2672840
-0.134339 -0.160480 1.155636 2672840
-0.134643 -0.077988 1.129845 2672840
0.089501 -0.031866 1.012323 2672840
-0.136575 -0.149989 1.141455 2672840
0.126969 -0.018660 0.999144 2672840
-0.169991 0.052974 0.844561 2672840
-0.135404 -0.096758 1.121511 2672840
-0.204458 0.092388 0.985551 2672840
-0.164766 0.096828 0.859082 2672840
-0.032324 0.162858 0.756869 2672840
0.230451 0.062315 0.838742 2672840
0.232537 0.053286 0.838918 2672840
0.233259 0.044252 0.838984 2672840
0.232982 0.035202 0.838935 2672840
0.230635 0.026205 0.838739 2672840
0.227968 0.019161 0.837811 2672840
0.225782 0.015217 0.839001 2672840
0.220650 0.009458 0.838874 2672840
-0.181964 -0.024744 0.953703 2672840
-0.188882 -0.015024 0.961407 2672840
-0.121765 -0.010816 1.060269 2672840
0.161866 -0.027474 0.831495 2672840
0.158337 -0.032569 0.832885 2672840
0.154703 -0.036602 0.831832 2672840
0.151029 -0.041923 0.831951 2672840
0.145847 -0.046645 0.829148 2672840
0.142597 -0.050601 0.831428 2672840
0.137583 -0.054624 0.830261 2672840
0.133481 -0.060037 0.830344 2672840
0.129661 -0.063684 0.827425 2672840
0.124807 -0.068154 0.830894 2672840
0.106161 -0.016993 1.015200 2672840
-0.094912 -0.045315 0.989289 2672840
0.113759 -0.014401 1.012764 2672840
-0.135106 -0.053966 1.111101 2672840
-0.135649 -0.012053 1.087905 2672840
0.179415 -0.002169 0.839339 2672840
-0.122546 0.139880 0.754882 2672840
-0.173939 0.097330 0.866935 2672840
-0.165158 0.053313 0.840206 2672840
-0.191755 0.070639 0.874664 2672840
-0.105628 0.002675 1.059570 2672840
-0.190950 0.000802 1.085493 2672840
-0.213887 0.024121 0.926226 2672840
0.171249 -0.010961 0.837630 2672840
0.169565 -0.018094 0.840780 2672840
0.165212 -0.024509 0.834961 2672840
0.205371 0.002557 0.846730 2672840
-0.228422 0.107659 1.008339 2672840
-0.154952 -0.149131 1.114947 2672840
-0.119474 0.102262 0.842545 2672840
-0.136841 -0.131985 1.148631 2672840
-0.136532 -0.068979 1.132212 2672840
-0.183435 0.054359 0.857888 2672840
-0.134744 -0.056976 1.120437 2672840
-0.186842 0.081006 0.872107 2672840
-0.200569 0.097866 0.983214 2672840
0.232363 0.053274 0.847232 2672840
0.232853 0.044237 0.847271 2672840
0.231715 0.035201 0.847175 2672840
0.229137 0.026193 0.846942 2672840
0.227289 0.020200 0.844690 2672840
0.225178 0.016684 0.847977 2672840
0.221092 0.011117 0.847912 2672840
-0.208649 0.027877 1.085859 2672840
-0.204402 0.023304 1.085775 2672840
-0.228196 0.044717 0.999927 2672840
0.166559 -0.024524 0.841401 2672840
0.163546 -0.028578 0.840390 2672840
0.159589 -0.033567 0.841796 2672840
0.155592 -0.036707 0.838219 2672840
0.152297 -0.042662 0.840053 2672840
0.148124 -0.048548 0.839721 2672840
0.143055 -0.052405 0.838601 2672840
0.133285 -0.059746 0.838697 2672840
-0.220311 0.071368 1.061376 2672840
-0.219250 0.107422 1.051239 2672840
-0.225372 0.053590 0.992097 2672840
0.108717 -0.062645 0.944864 2672840
-0.232302 0.064034 1.030566 2672840
-0.135083 -0.061459 1.111080 2672840
0.144363 -0.054414 0.909901 2672840
-0.176500 0.108866 0.883482 2672840
-0.174561 0.150773 0.988023 2672840
-0.072253 0.015045 1.098234 2672840
-0.176857 -0.025661 1.105107 2672840
-0.101246 0.063514 1.068270 2672840
-0.186620 -0.003673 1.085418 2672840
0.173347 -0.011546 0.845530 2672840
0.137260 -0.055731 0.841166 2672840
-0.195230 0.006302 1.086261 2672840
-0.196647 0.011300 1.091826 2672840
-0.068171 -0.034162 1.007133 2672840
-0.183830 -0.010747 1.067247 2672840
-0.163432 -0.164511 1.191909 2672840
0.090228 -0.050286 0.981162 2672840
0.038060 -0.019447 1.026819 2672840
-0.008759 -0.059220 0.976527 2672840
-0.136473 -0.140996 1.148583 2672840
-0.052018 0.150335 0.760296 2672840
-0.184351 -0.131856 1.174617 2672840
-0.129929 0.137927 0.755310 2672840
-0.210881 0.079615 0.987759 2672840
0.116590 -0.070605 0.910699 2672840
-0.221023 0.088513 1.077429 2672840
-0.157360 0.117280 0.873225 2672840
-0.178167 0.053528 0.854034 2672840
0.228434 0.061578 0.854207 2672840
0.229263 0.053159 0.857237 2672840
0.229963 0.044308 0.857330 2672840
0.229168 0.035535 0.856836 2672840
0.227999 0.028169 0.854507 2672840
0.225037 0.025627 0.858403 2672840
0.222211 0.019385 0.857224 2672840
-0.157092 -0.149637 1.139103 2672840
-0.172732 -0.024223 1.085529 2672840
-0.227136 0.123234 1.024842 2672840
-0.060184 -0.055260 0.973263 2672840
-0.221117 0.080221 0.995844 2672840
0.179605 0.000100 0.847007 2672840
0.175074 -0.008764 0.849016 2672840
0.172021 -0.018546 0.850320 2672840
0.167774 -0.026952 0.850349 2672840
0.164807 -0.030491 0.847575 2672840
0.161599 -0.035015 0.849388 2672840
0.153689 -0.043221 0.848237 2672840
0.149036 -0.048520 0.848271 2672840
0.145713 -0.051404 0.847986 2672840
0.137283 -0.055092 0.847194 2672840
0.133338 -0.058996 0.846867 2672840
0.128404 -0.063970 0.848362 2672840
-0.139884 -0.179593 1.174242 2672840
-0.162757 -0.132962 1.113822 2672840
-0.224736 0.121968 1.032348 2672840
-0.228931 0.115154 1.008384 2672840
-0.225198 0.035869 1.042125 2672840
-0.154881 -0.157164 1.130583 2672840
-0.168608 0.062483 0.846053 2672840
0.020253 -0.043746 0.998052 2672840
-0.178154 0.099467 0.874146 2672840
-0.156586 -0.087719 1.093074 2672840
-0.216901 0.079922 0.992397 2672840
-0.099057 0.059914 1.065546 2672840
-0.166338 0.089719 0.856069 2672840
-0.216843 0.036009 0.946749 2672840
0.046563 -0.055736 0.983016 2672840
-0.172320 -0.070215 1.097400 2672840
0.179481 -0.000779 0.856827 2672840
0.176953 -0.009207 0.857590 2672840
0.157732 -0.039642 0.851130 2672840
-0.121677 -0.017111 1.024695 2672840
0.107049 -0.060644 0.953523 2672840
-0.042082 -0.036587 1.000791 2672840
0.128301 0.000116 1.011276 2672840
-0.097288 -0.010590 1.139820 2672840
-0.102012 -0.006797 1.137759 2672840
-0.183764 -0.105349 1.148718 2672840
-0.134708 -0.053966 1.115778 2672840
-0.166841 0.156759 0.992112 2672840
-0.130719 0.070542 0.830682 2672840
0.001844 -0.060835 1.209369 2672840
-0.050640 -0.017696 1.016544 2672840
0.174949 -0.016589 0.859688 2672840
0.172643 -0.020577 0.858081 2672840
0.169729 -0.026118 0.858516 2672840
0.166839 -0.030603 0.858266 2672840
0.162640 -0.035102 0.857912 2672840
0.158136 -0.039666 0.857524 2672840
0.153801 -0.044123 0.857145 2672840
0.148999 -0.048492 0.856732 2672840
0.142576 -0.053154 0.856145 2672840
0.134141 -0.062040 0.856167 2672840
0.028111 -0.067180 0.952260 2672840
-0.174714 -0.097879 1.138143 2672840
-0.227535 0.089542 1.032690 2672840
-0.157263 0.134135 0.983607 2672840
-0.041622 -0.085476 0.768972 2672840
-0.069029 0.000142 1.097436 2672840
-0.148180 0.128967 0.885933 2672840
-0.200377 0.132633 0.983304 2672840
-0.212825 0.033883 1.069350 2672840
-0.171871 -0.078388 1.122930 2672840
0.173451 0.005306 0.958242 2672840
-0.209798 0.053865 0.970965 2672840
0.181341 -0.000164 0.867074 2672840
0.139274 -0.057477 0.858006 2672840
0.090187 -0.026124 1.016532 2672840
-0.207635 0.026935 1.077114 2672840
-0.208361 0.000061 1.033368 2672840
-0.135898 -0.149991 1.148562 2672840
-0.067098 -0.027557 1.016745 2672840
-0.174991 0.115685 0.972234 2672840
-0.169385 -0.088568 1.122057 2672840
-0.179219 -0.021833 1.095708 2672840
-0.226910 0.107570 1.024521 2672840
0.184552 0.008217 0.866348 2672840
0.178523 -0.009604 0.867712 2672840
0.175286 -0.017088 0.867425 2672840
0.172635 -0.021534 0.867199 2672840
0.168808 -0.026994 0.867298 2672840
0.166399 -0.030559 0.864557 2672840
0.160694 -0.035151 0.866198 2672840
0.157006 -0.039676 0.863777 2672840
0.153600 -0.043224 0.866005 2672840
0.149264 -0.048567 0.865208 2672840
0.144848 -0.053037 0.864825 2672840
0.140909 -0.057595 0.864471 2672840
0.136258 -0.062773 0.865943 2672840
0.089455 -0.085706 0.918596 2672840
-0.026158 -0.026696 1.009416 2672840
-0.157926 0.097552 0.855123 2672840
-0.190428 0.097021 0.970068 2672840
-0.165657 0.142812 0.983757 2672840
-0.134241 -0.169506 1.172187 2672840
-0.043037 -0.044264 1.165569 2672840
-0.219471 0.116418 1.051272 2672840
-0.142813 -0.120754 1.115634 2672840
0.184050 0.070661 0.918334 2672840
0.018125 -0.079739 1.192662 2672840
0.188310 0.016961 0.874917 2672840
0.185910 0.008822 0.875871 2672840
0.098500 -0.079270 0.918923 2672840
0.011543 -0.015336 1.022892 2672840
-0.101642 0.053647 0.814373 2672840
-0.069127 -0.031245 1.012896 2672840
-0.207888 0.019165 0.984816 2672840
-0.184625 0.088998 0.874289 2672840
-0.135200 -0.059979 1.125144 2672840
-0.193012 0.105591 0.979071 2672840
-0.221061 0.053373 1.061277 2672840
-0.173905 0.053652 0.849738 2672840
0.189920 0.026262 0.875315 2672840
0.183600 0.000883 0.876567 2672840
0.181691 -0.003606 0.876405 2672840
0.178787 -0.009615 0.876151 2672840
0.175763 -0.015475 0.875883 2672840
0.172609 -0.020083 0.875623 2672840
0.168115 -0.026136 0.875252 2672840
0.160882 -0.033556 0.874636 2672840
0.153697 -0.042559 0.874042 2672840
0.148421 -0.050079 0.873587 2672840
0.145478 -0.054439 0.873362 2672840
0.141178 -0.058867 0.874636 2672840
-0.059221 -0.024416 1.015041 2672840
-0.195092 -0.011943 0.953529 2672840
-0.093949 -0.015865 1.129410 2672840
0.135094 -0.009848 1.000308 2672840
-0.135273 -0.157502 1.148547 2672840
0.181768 0.026279 0.946040 2672840
-0.129225 0.078216 0.833762 2672840
-0.189956 0.080163 0.876438 2672840
0.018203 -0.083917 1.189392 2672840
-0.154970 -0.155772 1.122327 2672840
-0.145985 0.103874 0.852449 2672840
0.190625 0.043313 0.875790 2672840
0.190280 0.034949 0.876619 2672840
-0.200105 -0.008951 0.937489 2672840
-0.022378 -0.042641 1.199826 2672840
-0.198725 -0.007494 0.953742 2672840
0.038810 -0.069411 0.948770 2672840
-0.134585 -0.162001 1.148538 2672840
-0.060530 -0.062466 0.944389 2672840
-0.223766 0.068263 1.077879 2672840
-0.160181 -0.143192 1.146867 2672840
-0.226942 0.071840 0.999105 2672840
0.182720 0.074264 0.920784 2672840
-0.169279 -0.028059 1.082322 2672840
0.011078 -0.095871 0.934345 2672840
-0.028011 -0.012285 1.117236 2672840
-0.167736 -0.160254 1.185318 2672840
0.116950 -0.017731 1.008477 2672840
-0.164399 -0.121065 1.099545 2672840
0.189735 0.035326 0.885505 2672840
0.189269 0.026336 0.885462 2672840
0.188207 0.017360 0.885370 2672840
0.186389 0.008383 0.885210 2672840
0.184337 0.000919 0.885037 2672840
0.182378 -0.003585 0.884869 2672840
0.179085 -0.009540 0.884602 2672840
0.175492 -0.015546 0.884308 2672840
0.172155 -0.020036 0.884035 2672840
0.167676 -0.026910 0.884108 2672840
0.161707 -0.034194 0.882731 2672840
0.158102 -0.039489 0.882891 2672840
0.153983 -0.043974 0.882548 2672840
0.149725 -0.050075 0.882152 2672840
0.145597 -0.054891 0.883198 2672840
0.141910 -0.057914 0.882720 2672840
-0.162529 -0.132510 1.139577 2672840
-0.216200 0.035397 1.061133 2672840
-0.022699 -0.051208 1.190991 2672840
-0.204002 0.008330 0.962664 2672840
-0.134197 -0.166554 1.148469 2672840
-0.166149 -0.070488 1.092516 2672840
-0.091251 0.035417 1.052340 2672840
-0.069097 -0.060990 0.945493 2672840
0.065933 -0.090922 0.929918 2672840
-0.218623 0.017634 1.023903 2672840
-0.093461 0.018015 1.083225 2672840
-0.103549 -0.017539 1.024731 2672840
-0.202655 -0.000017 0.953994 2672840
-0.175099 -0.042830 1.095561 2672840
-0.228503 0.089589 1.024458 2672840
-0.217233 0.063020 0.936767 2672840
-0.222515 0.072770 1.077900 2672840
-0.204871 0.005950 0.956178 2672840
0.062195 -0.027896 1.018605 2672840
-0.141341 -0.095413 1.148529 2672840
-0.149030 0.089865 0.846012 2672840
-0.100140 0.056973 1.070229 2672840
0.188556 0.053292 0.893819 2672840
0.189028 0.044299 0.893852 2672840
0.189496 0.035308 0.893888 2672840
0.189190 0.026328 0.893854 2672840
0.188112 0.017359 0.893749 2672840
0.186038 0.008374 0.893568 2672840
0.183780 0.001396 0.892680 2672840
0.181995 -0.002600 0.893984 2672840
0.179211 -0.009589 0.893028 2672840
0.175525 -0.017034 0.892754 2672840
0.173130 -0.021545 0.892580 2672840
0.171056 -0.026041 0.892405 2672840
0.167381 -0.032887 0.892550 2672840
0.163591 -0.036477 0.889711 2672840
0.160370 -0.041785 0.892008 2672840
0.155494 -0.045367 0.889067 2672840
0.151807 -0.050271 0.891867 2672840
0.143903 -0.054828 0.892325 2672840
-0.202380 0.016704 1.077816 2672840
-0.160964 -0.134972 1.122915 2672840
-0.178668 -0.017441 1.102017 2672840
