# .PCD v.7 - Point Cloud Data file format
VERSION .7
FIELDS x y z rgb
SIZE 4 4 4 4
TYPE F F F U
COUNT 1 1 1 1
WIDTH 1323
HEIGHT 1
VIEWPOINT 0 0 0 1 0 0 0
POINTS 1323
DATA ascii
0.172643 -0.020577 0.858081 2672840
0.169729 -0.026118 0.858516 2672840
0.166839 -0.030603 0.858266 2672840
0.162640 -0.035102 0.857912 2672840
0.158136 -0.039666 0.857524 2672840
0.153801 -0.044123 0.857145 2672840
0.148999 -0.048492 0.856732 2672840
0.142576 -0.053154 0.856145 2672840
0.134141 -0.062040 0.856167 2672840
0.028111 -0.067180 0.952260 2672840
-0.174714 -0.097879 1.138143 2672840
-0.227535 0.089542 1.032690 2672840
-0.157263 0.134135 0.983607 2672840
-0.041622 -0.085476 0.768972 2672840
-0.069029 0.000142 1.097436 2672840
-0.148180 0.128967 0.885933 2672840
-0.200377 0.132633 0.983304 2672840
-0.212825 0.033883 1.069350 2672840
-0.171871 -0.078388 1.122930 2672840
0.173451 0.005306 0.958242 2672840
-0.209798 0.053865 0.970965 2672840
0.181341 -0.000164 0.867074 2672840
0.139274 -0.057477 0.858006 2672840
0.090187 -0.026124 1.016532 2672840
-0.207635 0.026935 1.077114 2672840
-0.208361 0.000061 1.033368 2672840
-0.135898 -0.149991 1.148562 2672840
-0.067098 -0.027557 1.016745 2672840
-0.174991 0.115685 0.972234 2672840
-0.169385 -0.088568 1.122057 2672840
-0.179219 -0.021833 1.095708 2672840
-0.226910 0.107570 1.024521 2672840
0.184552 0.008217 0.866348 2672840
0.178523 -0.009604 0.867712 2672840
0.175286 -0.017088 0.867425 2672840
0.172635 -0.021534 0.867199 2672840
0.168808 -0.026994 0.867298 2672840
0.166399 -0.030559 0.864557 2672840
0.160694 -0.035151 0.866198 2672840
0.157006 -0.039676 0.863777 2672840
0.153600 -0.043224 0.866005 2672840
0.149264 -0.048567 0.865208 2672840
0.144848 -0.053037 0.864825 2672840
0.140909 -0.057595 0.864471 2672840
0.136258 -0.062773 0.865943 2672840
0.089455 -0.085706 0.918596 2672840
-0.026158 -0.026696 1.009416 2672840
-0.157926 0.097552 0.855123 2672840
-0.190428 0.097021 0.970068 2672840
-0.165657 0.142812 0.983757 2672840
-0.134241 -0.169506 1.172187 2672840
-0.043037 -0.044264 1.165569 2672840
-0.219471 0.116418 1.051272 2672840
-0.142813 -0.120754 1.115634 2672840
0.184050 0.070661 0.918334 2672840
0.018125 -0.079739 1.192662 2672840
0.188310 0.016961 0.874917 2672840
0.185910 0.008822 0.875871 2672840
0.098500 -0.079270 0.918923 2672840
0.011543 -0.015336 1.022892 2672840
-0.101642 0.053647 0.814373 2672840
-0.069127 -0.031245 1.012896 2672840
-0.207888 0.019165 0.984816 2672840
-0.184625 0.088998 0.874289 2672840
-0.135200 -0.059979 1.125144 2672840
-0.193012 0.105591 0.979071 2672840
-0.221061 0.053373 1.061277 2672840
-0.173905 0.053652 0.849738 2672840
0.189920 0.026262 0.875315 2672840
0.183600 0.000883 0.876567 2672840
0.181691 -0.003606 0.876405 2672840
0.178787 -0.009615 0.876151 2672840
0.175763 -0.015475 0.875883 2672840
0.172609 -0.020083 0.875623 2672840
0.168115 -0.026136 0.875252 2672840
0.160882 -0.033556 0.874636 2672840
0.153697 -0.042559 0.874042 2672840
0.148421 -0.050079 0.873587 2672840
0.145478 -0.054439 0.873362 2672840
0.141178 -0.058867 0.874636 2672840
-0.059221 -0.024416 1.015041 2672840
-0.195092 -0.011943 0.953529 2672840
-0.093949 -0.015865 1.129410 2672840
0.135094 -0.009848 1.000308 2672840
-0.135273 -0.157502 1.148547 2672840
0.181768 0.026279 0.946040 2672840
-0.129225 0.078216 0.833762 2672840
-0.189956 0.080163 0.876438 2672840
0.018203 -0.083917 1.189392 2672840
-0.154970 -0.155772 1.122327 2672840
-0.145985 0.103874 0.852449 2672840
0.190625 0.043313 0.875790 2672840
0.190280 0.034949 0.876619 2672840
-0.200105 -0.008951 0.937489 2672840
-0.022378 -0.042641 1.199826 2672840
-0.198725 -0.007494 0.953742 2672840
0.038810 -0.069411 0.948770 2672840
-0.134585 -0.162001 1.148538 2672840
-0.060530 -0.062466 0.944389 2672840
-0.223766 0.068263 1.077879 2672840
-0.160181 -0.143192 1.146867 2672840
-0.226942 0.071840 0.999105 2672840
0.182720 0.074264 0.920784 2672840
-0.169279 -0.028059 1.082322 2672840
0.011078 -0.095871 0.934345 2672840
-0.028011 -0.012285 1.117236 2672840
-0.167736 -0.160254 1.185318 2672840
0.116950 -0.017731 1.008477 2672840
-0.164399 -0.121065 1.099545 2672840
0.189735 0.035326 0.885505 2672840
0.189269 0.026336 0.885462 2672840
0.188207 0.017360 0.885370 2672840
0.186389 0.008383 0.885210 2672840
0.184337 0.000919 0.885037 2672840
0.182378 -0.003585 0.884869 2672840
0.179085 -0.009540 0.884602 2672840
0.175492 -0.015546 0.884308 2672840
0.172155 -0.020036 0.884035 2672840
0.167676 -0.026910 0.884108 2672840
0.161707 -0.034194 0.882731 2672840
0.158102 -0.039489 0.882891 2672840
0.153983 -0.043974 0.882548 2672840
0.149725 -0.050075 0.882152 2672840
0.145597 -0.054891 0.883198 2672840
0.141910 -0.057914 0.882720 2672840
-0.162529 -0.132510 1.139577 2672840
-0.216200 0.035397 1.061133 2672840
-0.022699 -0.051208 1.190991 2672840
-0.204002 0.008330 0.962664 2672840
-0.134197 -0.166554 1.148469 2672840
-0.166149 -0.070488 1.092516 2672840
-0.091251 0.035417 1.052340 2672840
-0.069097 -0.060990 0.945493 2672840
0.065933 -0.090922 0.929918 2672840
-0.218623 0.017634 1.023903 2672840
-0.093461 0.018015 1.083225 2672840
-0.103549 -0.017539 1.024731 2672840
-0.202655 -0.000017 0.953994 2672840
-0.175099 -0.042830 1.095561 2672840
-0.228503 0.089589 1.024458 2672840
-0.217233 0.063020 0.936767 2672840
-0.222515 0.072770 1.077900 2672840
-0.204871 0.005950 0.956178 2672840
0.062195 -0.027896 1.018605 2672840
-0.141341 -0.095413 1.148529 2672840
-0.149030 0.089865 0.846012 2672840
-0.100140 0.056973 1.070229 2672840
0.188556 0.053292 0.893819 2672840
0.189028 0.044299 0.893852 2672840
0.189496 0.035308 0.893888 2672840
0.189190 0.026328 0.893854 2672840
0.188112 0.017359 0.893749 2672840
0.186038 0.008374 0.893568 2672840
0.183780 0.001396 0.892680 2672840
0.181995 -0.002600 0.893984 2672840
0.179211 -0.009589 0.893028 2672840
0.175525 -0.017034 0.892754 2672840
0.173130 -0.021545 0.892580 2672840
0.171056 -0.026041 0.892405 2672840
0.167381 -0.032887 0.892550 2672840
0.163591 -0.036477 0.889711 2672840
0.160370 -0.041785 0.892008 2672840
0.155494 -0.045367 0.889067 2672840
0.151807 -0.050271 0.891867 2672840
0.143903 -0.054828 0.892325 2672840
-0.202380 0.016704 1.077816 2672840
-0.160964 -0.134972 1.122915 2672840
-0.178668 -0.017441 1.102017 2672840
-0.159474 -0.142104 1.139127 2672840
-0.181062 -0.095613 1.141332 2672840
-0.186073 -0.003729 0.988008 2672840
-0.192223 -0.000571 0.989109 2672840
-0.138147 -0.049882 0.938025 2672840
-0.140866 -0.104259 1.149933 2672840
-0.180419 0.087967 0.867393 2672840
-0.148872 -0.149822 1.115424 2672840
-0.157720 -0.024890 1.076085 2672840
-0.059234 -0.062451 0.789887 2672840
-0.157661 -0.149553 1.122090 2672840
-0.195533 0.006291 1.077969 2672840
-0.181416 -0.008260 1.085361 2672840
-0.181286 -0.061621 1.140969 2672840
0.054786 -0.028078 1.017471 2672840
-0.139493 -0.113266 1.149390 2672840
-0.145362 0.067416 0.833758 2672840
-0.099990 0.014906 1.074759 2672840
0.183626 0.078768 0.901879 2672840
0.185726 0.071271 0.902033 2672840
0.187031 0.062289 0.902117 2672840
0.187683 0.053286 0.902157 2672840
0.188255 0.044286 0.902194 2672840
0.188833 0.035295 0.902231 2672840
0.188620 0.026323 0.902209 2672840
0.187144 0.017353 0.902079 2672840
0.184680 0.008396 0.901857 2672840
0.183197 0.001356 0.902480 2672840
0.182166 -0.002662 0.900979 2672840
0.153103 -0.050371 0.901341 2672840
-0.113125 -0.015848 1.024413 2672840
0.045589 -0.078807 0.944035 2672840
-0.086033 -0.028086 1.018578 2672840
-0.106506 0.121167 0.860688 2672840
-0.058842 0.026361 1.033395 2672840
-0.068563 0.036073 1.035387 2672840
-0.200640 0.044508 1.111593 2672840
-0.156478 0.034443 1.117404 2672840
-0.171123 -0.032290 1.087212 2672840
-0.043462 0.069664 1.021554 2672840
-0.142651 -0.173757 1.188978 2672840
-0.147436 -0.174142 1.189818 2672840
-0.087803 0.070236 1.041723 2672840
-0.096537 0.078621 1.051782 2672840
-0.148143 -0.167417 1.191219 2672840
-0.060804 0.078168 1.022157 2672840
-0.141544 -0.161112 1.182024 2672840
-0.143894 -0.163388 1.186842 2672840
-0.083665 0.017121 1.037859 2672840
-0.089185 0.011659 1.039683 2672840
-0.146126 -0.156974 1.184052 2672840
-0.150389 -0.160299 1.190235 2672840
-0.207507 0.044380 1.108884 2672840
-0.157460 -0.157395 1.192413 2672840
-0.166213 -0.159519 1.192599 2672840
-0.145413 -0.148301 1.176324 2672840
-0.150076 -0.150885 1.183014 2672840
-0.157438 -0.152395 1.189395 2672840
-0.181709 -0.060228 1.123677 2672840
-0.139311 0.061601 1.118157 2672840
-0.100446 0.083764 1.054587 2672840
-0.183154 0.114151 1.101585 2672840
-0.156670 -0.148050 1.185942 2672840
-0.165891 -0.149565 1.190904 2672840
-0.078173 0.080903 1.017858 2672840
-0.165989 0.107508 1.108158 2672840
-0.076092 0.026641 1.036776 2672840
-0.080563 0.027906 1.038600 2672840
-0.085611 0.025729 1.041909 2672840
-0.204388 0.034472 1.107786 2672840
-0.182116 0.096202 1.110630 2672840
-0.133859 0.046145 1.117710 2672840
-0.088426 0.013000 1.151142 2672840
-0.144699 -0.139855 1.169172 2672840
-0.148500 -0.141184 1.174281 2672840
-0.151543 -0.144430 1.179633 2672840
-0.157410 -0.141512 1.181709 2672840
-0.172583 -0.150029 1.189779 2672840
0.107742 0.087460 1.022487 2672840
-0.173722 0.054241 1.118289 2672840
0.126115 -0.061169 0.927511 2672840
-0.050964 0.080325 1.018518 2672840
-0.169271 -0.087945 1.114116 2672840
-0.164383 -0.123945 1.113903 2672840
-0.093745 0.070803 1.051539 2672840
0.000528 0.154177 0.940851 2672840
-0.147919 0.045500 1.118067 2672840
-0.185400 0.100762 1.107918 2672840
-0.200192 0.035890 1.110018 2672840
-0.150842 -0.008721 1.118379 2672840
0.015975 -0.080108 1.197486 2672840
0.037279 -0.032094 1.012827 2672840
-0.159382 -0.040951 1.081719 2672840
-0.201279 0.061879 1.112094 2672840
-0.154063 -0.138139 1.177086 2672840
-0.165681 -0.140923 1.185591 2672840
-0.157963 -0.012852 1.126479 2672840
0.010910 0.157719 0.942107 2672840
-0.033618 0.086655 1.011792 2672840
-0.175298 0.104179 1.108890 2672840
-0.059483 0.070449 1.025802 2672840
-0.165179 -0.019826 1.005897 2672840
-0.173274 0.070728 1.117815 2672840
-0.193954 0.017299 1.106484 2672840
-0.172722 -0.018649 1.127178 2672840
-0.078768 0.060183 1.031484 2672840
-0.006739 0.053694 1.032948 2672840
-0.074969 0.076094 1.021437 2672840
-0.143336 -0.132872 1.163385 2672840
-0.147182 -0.131334 1.167066 2672840
-0.150085 -0.135271 1.172181 2672840
-0.172304 -0.143251 1.188453 2672840
-0.175640 -0.140316 1.185765 2672840
-0.180808 -0.146958 1.184604 2672840
-0.014312 0.052143 1.030527 2672840
-0.210521 0.034937 1.103307 2672840
-0.137624 0.108453 1.107222 2672840
-0.183959 0.035807 1.115175 2672840
-0.130355 0.088810 1.113549 2672840
-0.149641 0.078665 1.117923 2672840
-0.159722 0.109622 1.107585 2672840
-0.042013 0.073145 1.018938 2672840
-0.016550 0.063849 1.026849 2672840
-0.051252 0.075694 1.021350 2672840
0.082233 0.080561 1.036695 2672840
-0.077721 0.071353 1.024116 2672840
-0.019177 0.054063 1.028547 2672840
-0.069527 0.060142 1.030188 2672840
-0.086972 -0.061326 0.917317 2672840
0.112369 0.086095 1.021476 2672840
-0.124128 0.016916 1.124100 2672840
-0.164830 0.018059 1.116684 2672840
0.007063 -0.071257 1.206444 2672840
0.151718 -0.033890 0.953481 2672840
-0.156545 -0.131433 1.174701 2672840
-0.165214 -0.134287 1.181160 2672840
0.072928 0.093735 1.030983 2672840
-0.052088 0.052269 1.030194 2672840
0.079852 0.076794 1.038540 2672840
0.123568 -0.017220 1.004277 2672840
0.186702 0.003347 0.846453 2672840
-0.149001 0.104326 1.110132 2672840
-0.191156 0.026658 1.111125 2672840
-0.202336 0.025365 1.104885 2672840
-0.124712 0.097501 1.109880 2672840
-0.033856 0.044817 1.026927 2672840
-0.121852 0.062063 1.115361 2672840
-0.085765 0.071033 1.032816 2672840
-0.216788 0.036000 1.093734 2672840
0.121543 0.094306 1.011894 2672840
-0.016089 -0.017532 1.016727 2672840
-0.210369 0.026941 0.962646 2672840
-0.091877 -0.016075 1.138506 2672840
0.036842 -0.023670 1.023219 2672840
0.099866 0.088762 1.025574 2672840
0.095949 0.084846 1.030650 2672840
0.002768 -0.069486 1.207161 2672840
-0.130339 0.102074 1.109451 2672840
-0.144606 -0.121703 1.159869 2672840
-0.149459 -0.124478 1.166190 2672840
-0.164792 -0.129838 1.178448 2672840
-0.173309 -0.132585 1.182042 2672840
-0.181653 -0.140270 1.182606 2672840
-0.177555 0.069979 1.117254 2672840
-0.067841 -0.061694 0.786227 2672840
-0.042590 0.080045 1.015536 2672840
0.072359 0.078387 1.039152 2672840
-0.156596 0.043717 1.118232 2672840
-0.164139 0.036077 1.117794 2672840
-0.113689 0.025132 1.128972 2672840
0.063948 0.070995 1.041876 2672840
-0.219323 0.026443 1.052823 2672840
-0.215682 0.027921 0.937093 2672840
0.055679 0.071600 1.041570 2672840
-0.205697 0.003114 0.943956 2672840
-0.178863 -0.029841 0.946431 2672840
-0.068150 -0.017186 1.025223 2672840
-0.165953 -0.020468 1.041432 2672840
-0.223768 0.089687 1.002075 2672840
-0.167197 0.032083 1.117218 2672840
-0.068393 0.078439 1.021818 2672840
0.037541 0.061825 1.041855 2672840
-0.154447 -0.120943 1.168515 2672840
-0.158894 -0.123703 1.172466 2672840
-0.165730 -0.122382 1.175313 2672840
-0.180212 -0.133473 1.180731 2672840
-0.215316 0.027627 0.946223 2672840
-0.134502 -0.029262 1.000272 2672840
-0.160172 0.038941 1.118046 2672840
0.029099 0.063114 1.040703 2672840
0.037225 0.148778 0.950517 2672840
-0.107710 0.060167 1.102905 2672840
-0.170689 -0.084985 1.124586 2672840
-0.216914 0.036052 0.936618 2672840
-0.222628 0.104785 0.994536 2672840
-0.196060 0.005767 0.984393 2672840
-0.189464 -0.006717 1.067451 2672840
-0.082990 0.070897 1.026129 2672840
0.012703 0.052383 1.038699 2672840
0.008866 0.055373 1.037226 2672840
0.002471 0.052628 1.035666 2672840
-0.142336 -0.113642 1.154247 2672840
-0.146234 -0.113886 1.159080 2672840
-0.150260 -0.116480 1.163913 2672840
-0.174737 -0.123472 1.176609 2672840
-0.176386 -0.127787 1.179297 2672840
0.102189 0.082854 1.027584 2672840
-0.180638 -0.014911 1.105473 2672840
-0.224274 0.037281 0.993765 2672840
-0.183805 0.027335 1.113702 2672840
0.044054 0.109623 1.019397 2672840
0.035662 0.077368 1.038885 2672840
-0.181216 -0.033021 0.928124 2672840
-0.169859 -0.036786 1.087176 2672840
-0.224098 0.071231 1.086123 2672840
-0.181269 -0.042185 1.115463 2672840
0.143808 0.000514 0.998868 2672840
-0.187042 -0.021123 0.947002 2672840
-0.190473 -0.016481 0.953298 2672840
-0.191769 0.000831 0.982146 2672840
-0.175280 -0.017987 0.980475 2672840
-0.179749 0.051697 1.117605 2672840
-0.026202 0.042745 1.028253 2672840
-0.217982 0.044379 1.077750 2672840
-0.156304 -0.114024 1.167309 2672840
-0.165908 -0.115104 1.172088 2672840
-0.182782 -0.123947 1.173366 2672840
0.219640 0.027320 0.864246 2672840
-0.111306 0.000690 1.131324 2672840
-0.050923 0.035251 1.031235 2672840
-0.167966 0.120452 1.100193 2672840
0.047368 0.105371 1.022466 2672840
-0.077935 0.053718 1.034235 2672840
0.133901 -0.000502 1.006827 2672840
0.132891 -0.006315 1.004694 2672840
-0.218740 0.044405 1.061214 2672840
-0.186161 -0.020971 0.953052 2672840
-0.186650 -0.105636 1.156566 2672840
-0.174924 0.035471 1.116786 2672840
-0.198485 0.029897 1.109400 2672840
-0.068792 0.027135 1.035576 2672840
-0.143497 -0.106871 1.154499 2672840
-0.148253 -0.105374 1.158996 2672840
-0.151849 -0.109900 1.163280 2672840
-0.163565 -0.112130 1.169823 2672840
-0.173921 -0.115599 1.172868 2672840
0.222542 0.035658 0.864901 2672840
0.213454 0.025464 0.865717 2672840
-0.183245 -0.009406 1.076106 2672840
-0.148375 0.109089 1.107966 2672840
-0.091107 0.074107 1.045662 2672840
-0.195427 0.091437 0.978522 2672840
-0.051434 0.043800 1.031172 2672840
0.157197 0.011662 0.986799 2672840
0.153812 0.009795 0.991359 2672840
0.149883 0.008392 0.996252 2672840
0.145808 0.009089 1.000656 2672840
0.140215 0.002430 1.003203 2672840
-0.031968 -0.094860 0.917884 2672840
-0.114295 0.007242 1.132509 2672840
-0.208257 0.071837 0.962760 2672840
-0.142912 0.040746 1.117515 2672840
-0.157021 -0.105680 1.165086 2672840
-0.165421 -0.105144 1.167921 2672840
0.213357 0.035400 0.868935 2672840
0.204932 0.025984 0.866602 2672840
-0.068642 0.064887 1.028415 2672840
-0.041279 0.044728 1.027761 2672840
-0.043375 0.089940 1.009524 2672840
0.094014 0.101443 1.019121 2672840
-0.092927 0.015845 1.146588 2672840
0.140937 0.009909 1.005012 2672840
0.135563 0.007491 1.008624 2672840
0.123946 0.000452 1.014639 2672840
-0.204877 -0.002954 0.931679 2672840
-0.206425 0.000950 0.927707 2672840
-0.232046 0.077632 1.022391 2672840
-0.187935 -0.006525 1.074981 2672840
-0.213567 0.073395 0.947890 2672840
0.123245 -0.025148 0.997149 2672840
-0.164677 -0.124198 1.104282 2672840
-0.163234 -0.123981 1.122279 2672840
-0.183281 -0.008505 0.981255 2672840
-0.225356 0.080197 1.000764 2672840
-0.113137 0.113849 0.850021 2672840
-0.215376 0.028633 0.926336 2672840
-0.015552 -0.051980 1.201986 2672840
-0.143904 -0.098448 1.152765 2672840
-0.148062 -0.097468 1.157076 2672840
-0.173627 -0.106014 1.168377 2672840
-0.177040 -0.110821 1.169181 2672840
-0.139655 -0.000653 1.105389 2672840
0.222569 0.044556 0.865921 2672840
0.204873 0.035701 0.869487 2672840
0.196465 0.034962 0.868934 2672840
0.195618 0.025994 0.866547 2672840
-0.214773 0.010592 1.031352 2672840
-0.048322 0.090380 1.010622 2672840
-0.121897 0.035185 1.119060 2672840
-0.113405 0.035639 1.120248 2672840
-0.110269 0.039371 1.116699 2672840
-0.211833 0.062898 1.107888 2672840
0.165501 0.020392 0.977343 2672840
0.158383 0.019317 0.987486 2672840
0.155174 0.018211 0.991803 2672840
0.150806 0.017395 0.997401 2672840
0.132104 0.011217 1.012380 2672840
0.125813 0.008489 1.016232 2672840
0.114646 0.002343 1.021842 2672840
-0.189224 -0.023802 0.934723 2672840
-0.204349 0.080633 0.963684 2672840
-0.178724 -0.012180 0.983580 2672840
-0.158060 -0.148818 1.147989 2672840
-0.228543 0.062324 0.998535 2672840
0.004412 0.155339 0.941722 2672840
-0.153903 -0.094897 1.160880 2672840
-0.158718 -0.097842 1.164051 2672840
-0.165883 -0.011223 1.126653 2672840
-0.176339 -0.016366 1.122219 2672840
0.214814 0.043903 0.869620 2672840
-0.128743 0.032766 1.117971 2672840
0.046937 0.095985 1.030398 2672840
-0.045911 0.044344 1.029549 2672840
0.166373 0.027240 0.977037 2672840
0.163066 0.025626 0.981630 2672840
0.158587 0.027332 0.987825 2672840
0.147329 0.018278 1.001355 2672840
0.143135 0.019183 1.005462 2672840
0.137264 0.015959 1.009686 2672840
0.116856 0.008928 1.023093 2672840
0.109027 0.008021 1.027467 2672840
-0.068795 -0.041251 0.996756 2672840
-0.185106 -0.079071 1.139337 2672840
-0.207689 0.011636 0.992946 2672840
-0.212722 0.054606 0.963882 2672840
-0.186146 -0.003378 0.983970 2672840
-0.059332 -0.019936 1.019337 2672840
-0.092561 0.063106 1.052877 2672840
0.053659 0.147935 0.950115 2672840
-0.142155 -0.087050 1.147419 2672840
-0.144958 -0.088062 1.151334 2672840
-0.149389 -0.088748 1.155837 2672840
-0.165870 -0.096214 1.165299 2672840
-0.174218 -0.096756 1.164411 2672840
0.222569 0.053453 0.865268 2672840
0.210635 0.046788 0.870620 2672840
0.205848 0.044994 0.870716 2672840
0.201524 0.041130 0.870216 2672840
0.192550 0.037602 0.870589 2672840
0.011180 0.089051 1.028001 2672840
0.155179 0.027539 0.992568 2672840
0.150841 0.026324 0.998298 2672840
0.132601 0.019219 1.014207 2672840
0.125980 0.016357 1.018539 2672840
0.099212 0.008758 1.032597 2672840
-0.223244 0.119418 0.993951 2672840
-0.223671 0.054813 1.071606 2672840
-0.166465 -0.105966 1.122384 2672840
-0.215050 0.038383 1.069407 2672840
-0.171415 -0.069946 1.114209 2672840
-0.213044 0.044887 0.964881 2672840
0.115792 -0.023700 1.004700 2672840
-0.007338 0.062279 1.030995 2672840
-0.132769 0.053064 1.117683 2672840
-0.013887 -0.037710 1.206618 2672840
-0.155687 -0.087269 1.159728 2672840
-0.160005 -0.089293 1.162263 2672840
-0.165922 -0.088609 1.163013 2672840
0.214051 0.053848 0.869545 2672840
0.196639 0.044796 0.870105 2672840
-0.120928 0.039891 1.117440 2672840
0.165809 0.035684 0.978405 2672840
0.162975 0.034645 0.982233 2672840
0.143238 0.027466 1.006488 2672840
0.137688 0.025383 1.011255 2672840
0.122337 0.019714 1.021938 2672840
0.116815 0.017324 1.025241 2672840
0.106432 0.011703 1.030128 2672840
0.091317 0.007662 1.035468 2672840
-0.145859 -0.173577 1.148448 2672840
-0.224571 0.054780 1.077786 2672840
-0.207130 0.078729 0.959790 2672840
-0.214436 0.052387 0.960912 2672840
-0.207497 0.064291 1.109634 2672840
-0.181971 0.008099 1.110876 2672840
-0.059975 0.034785 1.033755 2672840
-0.173111 -0.001272 1.118871 2672840
-0.142145 -0.079167 1.145079 2672840
-0.146717 -0.078662 1.150131 2672840
-0.150514 -0.079335 1.153614 2672840
-0.172520 -0.089601 1.162632 2672840
-0.184214 -0.097310 1.156752 2672840
0.221152 0.062653 0.863338 2672840
0.211633 0.053845 0.870517 2672840
0.205333 0.051472 0.870684 2672840
0.196382 0.053791 0.869137 2672840
0.192950 0.046740 0.870974 2672840
0.118001 -0.063933 0.927837 2672840
0.017909 0.091477 1.028679 2672840
0.053868 0.095583 1.030623 2672840
0.158807 0.037028 0.987942 2672840
0.155500 0.036262 0.992445 2672840
0.151197 0.035027 0.998211 2672840
0.133513 0.028098 1.015212 2672840
0.128157 0.025410 1.018896 2672840
0.123621 0.026572 1.022280 2672840
0.112037 0.017981 1.028181 2672840
0.107165 0.018636 1.030950 2672840
0.098285 0.018413 1.035213 2672840
0.083385 0.007235 1.037805 2672840
-0.223159 0.078760 1.079982 2672840
-0.041713 -0.061326 0.964083 2672840
0.046617 -0.088020 0.938575 2672840
-0.158173 -0.142534 1.112322 2672840
0.041031 0.163800 0.941466 2672840
0.105339 0.092586 1.020339 2672840
0.056984 0.083631 1.037853 2672840
-0.156402 -0.079671 1.157589 2672840
-0.162525 -0.083798 1.161384 2672840
-0.176243 -0.086024 1.159416 2672840
-0.181933 -0.089004 1.155888 2672840
0.214509 0.061554 0.867656 2672840
0.205186 0.055865 0.870081 2672840
0.191935 0.050822 0.871773 2672840
0.190183 0.053183 0.874669 2672840
0.142614 0.035779 1.007601 2672840
0.133968 0.035760 1.015431 2672840
0.116492 0.026370 1.026882 2672840
0.091558 0.016135 1.037655 2672840
0.087106 0.013082 1.038486 2672840
0.080462 0.009666 1.039236 2672840
0.072186 0.008242 1.040094 2672840
-0.174610 -0.033743 0.945067 2672840
-0.232382 0.056557 1.024335 2672840
-0.076165 -0.023326 1.157037 2672840
0.075707 0.081763 1.037649 2672840
-0.207069 0.086628 0.920572 2672840
-0.147517 -0.070708 1.147797 2672840
-0.165545 -0.078414 1.159719 2672840
-0.174604 -0.079604 1.157535 2672840
0.205389 0.062566 0.868337 2672840
-0.037508 0.067374 1.020969 2672840
0.158497 0.045951 0.988125 2672840
0.155254 0.045465 0.992655 2672840
0.150417 0.043936 0.999015 2672840
0.147428 0.039747 1.002804 2672840
0.128280 0.034722 1.019853 2672840
0.124294 0.035372 1.022808 2672840
0.107930 0.027458 1.031655 2672840
0.099075 0.027251 1.035966 2672840
0.087874 0.019070 1.039440 2672840
0.081442 0.017429 1.040835 2672840
0.063576 0.008563 1.040844 2672840
0.055210 -0.037309 1.009245 2672840
-0.177504 -0.012847 1.085259 2672840
-0.223646 0.029512 1.040538 2672840
-0.222591 0.023604 1.023999 2672840
-0.171523 0.039288 1.117605 2672840
-0.033929 -0.025233 1.193667 2672840
-0.039925 -0.028219 1.189614 2672840
-0.157713 -0.071967 1.155294 2672840
0.213090 0.069873 0.864060 2672840
0.195646 0.062849 0.865949 2672840
0.190079 0.061926 0.867701 2672840
0.041083 0.108764 1.020114 2672840
0.142874 0.044436 1.007334 2672840
0.134266 0.044423 1.015212 2672840
0.117742 0.035068 1.026999 2672840
0.093664 0.024053 1.037985 2672840
0.089261 0.027408 1.039866 2672840
0.072854 0.018545 1.042404 2672840
0.063708 0.017999 1.042980 2672840
0.055516 0.008817 1.040973 2672840
0.046876 0.007998 1.040109 2672840
-0.032108 -0.059596 0.971217 2672840
-0.213668 0.024050 0.948549 2672840
0.195964 0.002370 0.846858 2672840
-0.163444 -0.164174 1.186287 2672840
-0.211269 0.062854 0.962862 2672840
-0.044341 -0.025549 1.186749 2672840
-0.023093 0.166082 0.891438 2672840
-0.141625 -0.061726 1.138197 2672840
-0.144665 -0.061397 1.141560 2672840
-0.149422 -0.061713 1.146081 2672840
-0.154101 -0.067751 1.151673 2672840
-0.165286 -0.069703 1.156293 2672840
-0.173224 -0.071868 1.155009 2672840
0.213116 0.074207 0.860651 2672840
0.204516 0.071470 0.864224 2672840
0.197525 0.069153 0.864045 2672840
-0.190798 0.019436 1.109109 2672840
-0.021449 0.046637 1.029345 2672840
-0.048329 0.054539 1.028727 2672840
0.158639 0.054581 0.987582 2672840
0.155361 0.054125 0.992196 2672840
0.150431 0.053192 0.998571 2672840
0.128629 0.043393 1.019739 2672840
0.124338 0.045147 1.022862 2672840
0.112972 0.037573 1.029783 2672840
0.107892 0.035733 1.032333 2672840
0.099657 0.036017 1.036299 2672840
0.080845 0.025747 1.042020 2672840
0.054392 0.018818 1.043103 2672840
0.037422 0.008987 1.039308 2672840
-0.230194 0.044568 1.024236 2672840
0.115884 -0.028069 1.000413 2672840
-0.172750 -0.079082 1.098288 2672840
-0.051795 -0.025228 1.181784 2672840
-0.159441 -0.065424 1.153317 2672840
0.002288 0.077108 1.030164 2672840
0.165397 0.059203 0.977094 2672840
0.142984 0.053055 1.006785 2672840
0.117519 0.043100 1.027368 2672840
0.072313 0.026901 1.043658 2672840
0.029809 0.011071 1.038687 2672840
-0.219805 0.044225 1.085991 2672840
0.098375 -0.053709 0.964050 2672840
-0.170006 -0.081973 1.120410 2672840
-0.193697 -0.002785 1.059972 2672840
-0.014622 0.057859 1.029336 2672840
-0.174448 0.123741 0.926261 2672840
-0.143342 -0.055159 1.137267 2672840
-0.165497 -0.063278 1.153767 2672840
-0.170639 -0.065110 1.153371 2672840
-0.176219 -0.069279 1.151988 2672840
-0.116506 0.085110 1.109919 2672840
0.193360 0.073511 0.860637 2672840
-0.170936 0.128673 1.093998 2672840
0.027434 0.009042 1.037718 2672840
-0.006328 -0.063784 0.963807 2672840
-0.156281 -0.033096 0.971763 2672840
-0.154811 -0.022700 0.995172 2672840
-0.138161 -0.016090 1.068306 2672840
-0.145297 -0.032019 0.988419 2672840
-0.192142 0.133388 0.981363 2672840
-0.156930 -0.020837 0.998268 2672840
-0.174396 -0.017054 1.049661 2672840
-0.096170 -0.055432 0.964536 2672840
-0.076909 -0.025877 1.148823 2672840
-0.023435 -0.048614 1.150101 2672840
0.011273 -0.080411 1.183629 2672840
-0.007760 -0.055207 1.155720 2672840
-0.032022 -0.049474 1.157469 2672840
-0.139411 0.052925 0.752298 2672840
-0.137361 0.061665 0.753859 2672840
-0.143755 0.083139 0.754958 2672840
-0.147355 0.088994 0.760223 2672840
-0.150384 0.098538 0.759357 2672840
-0.149857 0.105963 0.759055 2672840
-0.148462 0.115283 0.758903 2672840
-0.145647 0.123264 0.760467 2672840
-0.122134 0.144233 0.760338 2672840
-0.207819 0.087094 0.929158 2672840
-0.005490 -0.067527 1.192275 2672840
-0.066863 -0.031061 1.129689 2672840
-0.024661 -0.067770 0.946160 2672840
-0.181426 -0.013936 1.048806 2672840
-0.144424 -0.021447 1.032330 2672840
-0.120549 -0.015060 1.032102 2672840
-0.060818 -0.033081 1.129758 2672840
-0.024448 0.158516 0.754850 2672840
-0.208158 0.147832 1.000464 2672840
0.010105 -0.064358 0.963774 2672840
-0.164611 0.026895 0.754224 2672840
-0.166116 0.027850 0.760725 2672840
-0.163481 0.033159 0.758224 2672840
-0.159155 0.036552 0.760929 2672840
-0.154951 0.043566 0.758248 2672840
-0.150958 0.048350 0.758780 2672840
-0.146448 0.052368 0.758874 2672840
-0.141960 0.056359 0.758973 2672840
-0.138026 0.061623 0.758732 2672840
-0.144255 0.080952 0.757598 2672840
-0.117262 0.145980 0.763782 2672840
-0.181169 0.112378 0.894419 2672840
-0.144252 -0.021673 1.008195 2672840
-0.067617 0.133796 0.760766 2672840
-0.063261 0.135811 0.757622 2672840
-0.059511 0.141164 0.760731 2672840
-0.033385 0.165587 0.760505 2672840
-0.190884 0.106158 0.901750 2672840
-0.180640 0.119618 0.916095 2672840
-0.183178 0.114149 0.901695 2672840
-0.176735 -0.051529 1.142559 2672840
-0.166315 0.009698 0.759621 2672840
-0.166635 0.019303 0.761305 2672840
-0.133914 0.065231 0.761456 2672840
-0.143581 0.079005 0.763354 2672840
-0.145968 0.091305 0.768461 2672840
-0.146421 0.096949 0.769316 2672840
-0.147457 0.106188 0.768182 2672840
-0.146494 0.115536 0.769052 2672840
-0.144289 0.121857 0.767534 2672840
-0.141937 0.124560 0.769997 2672840
-0.137734 0.132233 0.770025 2672840
-0.133429 0.136411 0.770157 2672840
-0.129307 0.139935 0.769805 2672840
-0.174721 0.116589 0.892770 2672840
-0.154829 0.129910 0.894240 2672840
-0.215861 0.131047 1.050291 2672840
-0.202037 0.150745 1.051140 2672840
-0.048572 0.155958 0.763276 2672840
-0.037905 0.164451 0.764584 2672840
-0.034214 0.165571 0.769397 2672840
-0.156830 0.131448 0.902139 2672840
-0.204229 0.091992 0.929354 2672840
-0.068969 -0.064265 0.917604 2672840
-0.013345 0.164816 0.874607 2672840
-0.190776 0.130917 1.085478 2672840
-0.200176 0.123366 1.085226 2672840
-0.172893 0.121654 0.902210 2672840
-0.139096 0.071111 0.833321 2672840
-0.034189 -0.033693 1.003713 2672840
-0.156041 0.035010 0.769143 2672840
-0.153448 0.041947 0.764799 2672840
-0.148681 0.044403 0.769338 2672840
-0.145612 0.049921 0.766397 2672840
-0.139310 0.052946 0.768534 2672840
-0.135978 0.058720 0.765222 2672840
-0.130359 0.061623 0.768054 2672840
-0.138728 0.080233 0.768611 2672840
-0.211220 0.132895 1.061457 2672840
-0.207280 0.138901 1.060932 2672840
-0.199338 0.148775 1.057845 2672840
-0.189674 0.103944 0.894168 2672840
-0.171120 0.111337 0.878641 2672840
-0.066025 0.132468 0.769378 2672840
-0.059423 0.141080 0.770109 2672840
-0.052792 0.150494 0.770861 2672840
-0.048298 0.156201 0.770113 2672840
-0.041970 0.159700 0.770759 2672840
0.126486 -0.064107 0.918934 2672840
-0.032997 0.141954 0.884731 2672840
0.001214 0.141080 0.946285 2672840
-0.212640 0.078942 0.936966 2672840
-0.207876 0.086907 0.937290 2672840
-0.027291 0.151132 0.881463 2672840
0.081076 -0.053072 0.981141 2672840
-0.162652 0.008357 0.767380 2672840
-0.163073 0.018018 0.768608 2672840
-0.163719 0.026918 0.769321 2672840
-0.132844 0.055400 0.771976 2672840
-0.143870 0.097117 0.774565 2672840
-0.144964 0.106948 0.775733 2672840
-0.144265 0.115391 0.775062 2672840
-0.139279 0.123915 0.777367 2672840
-0.135936 0.130176 0.778046 2672840
-0.131836 0.134588 0.778200 2672840
-0.127182 0.138489 0.776196 2672840
-0.213998 0.127141 1.063341 2672840
-0.031566 0.150468 0.892892 2672840
-0.204324 0.091848 0.937474 2672840
-0.063719 0.134816 0.771909 2672840
-0.036833 0.163041 0.772835 2672840
-0.200015 0.097211 0.937375 2672840
-0.036535 0.135397 0.884614 2672840
-0.015205 0.167826 0.882539 2672840
-0.222243 0.136522 1.024596 2672840
-0.216480 0.115923 1.069524 2672840
-0.165624 0.123497 0.893867 2672840
-0.196600 0.100982 0.939817 2672840
0.098842 -0.063945 0.944225 2672840
-0.195835 0.100945 0.917417 2672840
-0.161157 0.016099 0.771123 2672840
-0.159922 0.029331 0.772527 2672840
-0.151115 0.037568 0.772623 2672840
-0.142148 0.047706 0.772961 2672840
-0.207997 0.131622 1.068978 2672840
-0.142176 0.097399 0.778073 2672840
-0.220174 0.088408 1.085094 2672840
-0.142387 0.114405 0.779299 2672840
-0.220433 0.124917 1.042314 2672840
-0.027074 0.142711 0.872509 2672840
-0.192295 -0.011430 1.031781 2672840
-0.163659 0.120920 0.885751 2672840
-0.023741 0.159382 0.882265 2672840
-0.061911 0.133630 0.778452 2672840
-0.057492 0.140129 0.777998 2672840
-0.053285 0.143898 0.779104 2672840
-0.049625 0.150171 0.778736 2672840
-0.042390 0.156580 0.778490 2672840
-0.030085 0.164740 0.776782 2672840
-0.177634 0.118046 0.940262 2672840
-0.209602 0.141597 1.051788 2672840
-0.199411 0.157006 1.025583 2672840
-0.204682 0.082508 0.906397 2672840
-0.224917 0.131564 1.024074 2672840
-0.167321 0.126852 0.938048 2672840
-0.216439 0.139801 1.032513 2672840
-0.208405 0.150022 1.033167 2672840
-0.210020 0.149198 1.008540 2672840
-0.156567 0.010009 0.777797 2672840
-0.156581 0.017429 0.778198 2672840
-0.156641 0.026950 0.777973 2672840
-0.153129 0.033118 0.776694 2672840
-0.148319 0.035520 0.778920 2672840
-0.144682 0.041649 0.776807 2672840
-0.138546 0.044677 0.778082 2672840
-0.129165 0.051564 0.777701 2672840
-0.121922 0.053907 0.779855 2672840
-0.210996 0.079939 0.919646 2672840
-0.180799 -0.070377 1.147197 2672840
-0.208468 0.079111 0.911067 2672840
-0.137814 0.115114 0.785059 2672840
-0.136694 0.122360 0.783533 2672840
-0.132412 0.124750 0.786828 2672840
-0.129176 0.131717 0.784994 2672840
-0.199030 0.095933 0.909128 2672840
-0.195707 0.101083 0.909341 2672840
-0.216728 0.087493 1.093974 2672840
-0.044667 0.153683 0.780893 2672840
-0.199597 0.097437 0.929029 2672840
-0.014735 0.166242 0.918767 2672840
-0.103287 0.018308 1.139013 2672840
-0.203551 0.153303 1.024353 2672840
-0.209196 0.148999 1.024941 2672840
-0.020993 0.165057 0.884601 2672840
-0.191270 0.106624 0.927788 2672840
-0.209430 0.149590 1.016898 2672840
-0.193130 0.097906 0.891703 2672840
-0.195405 0.099610 0.900478 2672840
-0.183359 0.116197 0.909911 2672840
-0.220324 0.133447 1.033155 2672840
-0.035942 0.141569 0.894022 2672840
-0.027392 0.143328 0.927927 2672840
-0.217758 0.132717 1.041195 2672840
-0.141995 0.038901 0.780724 2672840
-0.132119 0.045961 0.780569 2672840
-0.219645 0.141450 1.016952 2672840
0.008413 0.140207 0.949168 2672840
-0.220292 0.134030 0.997293 2672840
-0.197985 0.094907 0.953073 2672840
-0.199356 0.087804 0.892665 2672840
-0.165740 -0.095933 1.095441 2672840
-0.215052 0.102258 1.083378 2672840
-0.102787 -0.008854 1.111485 2672840
-0.197819 0.096339 0.901693 2672840
-0.057917 0.131977 0.785607 2672840
-0.050964 0.140718 0.785673 2672840
-0.047002 0.147397 0.784550 2672840
-0.016047 0.158844 0.927748 2672840
-0.199956 0.088848 0.961683 2672840
-0.203096 0.088101 0.909167 2672840
-0.202188 0.142989 1.062480 2672840
-0.136270 -0.021898 1.014006 2672840
-0.222608 0.126593 1.034742 2672840
-0.031331 0.139650 0.877094 2672840
-0.203209 0.126552 1.079877 2672840
-0.208589 0.123506 1.077024 2672840
-0.211974 0.124905 1.070538 2672840
-0.200026 0.131928 1.077264 2672840
-0.023567 0.149435 0.927388 2672840
-0.149058 0.026675 0.784175 2672840
-0.143897 0.032187 0.784374 2672840
-0.138020 0.034796 0.785329 2672840
-0.131085 0.036298 0.787074 2672840
-0.128920 0.042668 0.784275 2672840
-0.121300 0.044341 0.786504 2672840
-0.118612 0.049358 0.784313 2672840
-0.112154 0.051974 0.785990 2672840
-0.215270 0.070843 0.919984 2672840
-0.200656 0.152631 1.017369 2672840
-0.027161 0.159197 0.890324 2672840
-0.095792 0.009083 1.148541 2672840
-0.215824 0.107183 1.077798 2672840
-0.216600 0.096209 1.084872 2672840
-0.130628 0.114010 0.790881 2672840
-0.130032 0.116980 0.791093 2672840
-0.127599 0.121527 0.791261 2672840
-0.191294 0.152982 1.007523 2672840
-0.196113 0.100949 0.925568 2672840
-0.017366 0.170564 0.890711 2672840
-0.031560 0.149385 0.911009 2672840
-0.156242 -0.036857 0.963249 2672840
-0.053981 0.135186 0.788160 2672840
-0.045158 0.143329 0.788249 2672840
-0.214560 0.146142 1.016817 2672840
-0.215905 0.124137 1.060890 2672840
-0.174451 0.123987 0.918158 2672840
-0.212070 0.142804 1.041177 2672840
-0.191320 0.107016 0.917639 2672840
-0.213822 0.145126 1.024878 2672840
-0.201602 0.088497 0.901046 2672840
-0.202744 0.134792 1.071831 2672840
-0.179402 -0.083340 1.156071 2672840
-0.209279 0.079335 0.953229 2672840
-0.140240 0.028472 0.787653 2672840
-0.125293 0.038966 0.787920 2672840
-0.114407 0.047185 0.788079 2672840
-0.200942 0.157461 1.033374 2672840
-0.086525 0.000840 1.157823 2672840
-0.208269 0.114510 1.085031 2672840
-0.121099 0.114103 0.794182 2672840
-0.029375 0.156167 0.894755 2672840
-0.212659 0.079205 0.928823 2672840
-0.165468 0.126125 0.901829 2672840
0.010175 -0.080628 1.191471 2672840
-0.203374 0.100762 1.099764 2672840
-0.012419 0.173254 0.891118 2672840
-0.050612 0.131727 0.793250 2672840
-0.041602 0.140052 0.792884 2672840
-0.017239 0.171374 0.901545 2672840
-0.224207 0.130888 1.000776 2672840
-0.199784 0.095821 0.918755 2672840
-0.219849 0.140977 1.008573 2672840
-0.218287 0.141064 1.024761 2672840
-0.005826 0.166422 0.927521 2672840
-0.030768 0.147209 0.885860 2672840
-0.200925 0.151954 1.006899 2672840
-0.182745 -0.078610 1.148313 2672840
-0.018783 0.153073 0.929490 2672840
-0.032327 0.150377 0.902791 2672840
-0.193958 0.125553 1.088100 2672840
-0.022911 0.166460 0.901427 2672840
-0.192137 0.105963 0.909529 2672840
-0.128877 0.027602 0.791532 2672840
-0.122759 0.027378 0.796100 2672840
-0.119704 0.035034 0.793986 2672840
-0.111383 0.044019 0.793247 2672840
-0.103181 0.052236 0.794124 2672840
-0.024168 -0.063812 0.965259 2672840
-0.215472 0.137796 1.038981 2672840
-0.029204 0.155831 0.903023 2672840
-0.219128 0.080497 1.095990 2672840
-0.147692 -0.157469 1.121739 2672840
-0.028150 0.154432 0.913267 2672840
-0.211798 0.090181 1.098525 2672840
-0.210126 0.097042 1.095630 2672840
-0.190144 0.096066 0.885465 2672840
-0.042094 0.133672 0.797822 2672840
-0.211970 0.106729 1.085979 2672840
-0.213689 0.100776 1.087518 2672840
-0.030035 0.147621 0.919182 2672840
-0.027027 0.160000 0.901152 2672840
-0.180337 -0.026999 1.120122 2672840
-0.184745 0.153430 0.996135 2672840
-0.192697 0.135115 1.080060 2672840
-0.025681 0.159258 0.911123 2672840
-0.185089 -0.087428 1.148697 2672840
-0.016878 0.142462 0.937319 2672840
-0.115081 0.036968 0.797811 2672840
-0.105815 0.046857 0.795982 2672840
-0.123004 -0.058992 0.917003 2672840
-0.203832 0.090240 0.918242 2672840
-0.013072 0.173597 0.901550 2672840
-0.129548 -0.018231 1.032210 2672840
-0.044975 0.128004 0.799566 2672840
-0.036235 0.136227 0.799733 2672840
-0.170969 -0.096856 1.099401 2672840
-0.184876 0.106957 0.891143 2672840
-0.212126 0.116390 1.078554 2672840
-0.015522 0.149668 0.934455 2672840
-0.112537 0.036575 0.805319 2672840
-0.110396 0.040719 0.799930 2672840
-0.104810 0.045025 0.804587 2672840
-0.100261 0.053471 0.803842 2672840
-0.168341 0.126591 0.910058 2672840
-0.105685 0.097230 0.803337 2672840
-0.098883 0.109427 0.805328 2672840
-0.009238 0.151799 0.937456 2672840
-0.005908 0.159101 0.935182 2672840
-0.226355 0.132309 1.016388 2672840
-0.042220 0.123031 0.803159 2672840
-0.033057 0.123044 0.805508 2672840
-0.203014 0.117658 1.087869 2672840
-0.206094 0.084644 0.953421 2672840
-0.202437 0.089444 0.953598 2672840
-0.223146 0.137739 1.014534 2672840
-0.207622 0.150256 1.040991 2672840
-0.020550 0.154923 0.925538 2672840
-0.167434 -0.114253 1.105956 2672840
-0.193863 0.098653 0.954282 2672840
-0.091197 0.000630 1.154784 2672840
-0.185809 -0.124074 1.165704 2672840
-0.197099 0.094448 0.894836 2672840
-0.021422 0.164660 0.911621 2672840
-0.118986 0.027326 0.804348 2672840
-0.195790 0.107991 1.099836 2672840
-0.103550 0.097210 0.812231 2672840
-0.100813 0.103676 0.812177 2672840
-0.098092 0.107526 0.813392 2672840
-0.213621 0.134413 1.052220 2672840
-0.199620 0.114127 1.093215 2672840
-0.035129 0.118081 0.806624 2672840
-0.168336 0.128185 0.926357 2672840
-0.012402 0.163682 0.925838 2672840
-0.214802 0.114023 1.075698 2672840
-0.194356 0.091500 0.972066 2672840
-0.163318 0.129340 0.910726 2672840
-0.191848 0.097694 0.961959 2672840
-0.147229 -0.034074 0.980481 2672840
0.080661 -0.088550 0.919499 2672840
-0.035674 0.143136 0.902434 2672840
-0.199880 0.139212 1.069503 2672840
-0.117015 0.030185 0.807828 2672840
-0.181503 -0.044422 1.130301 2672840
-0.166413 0.117952 0.883385 2672840
-0.021713 0.129868 0.813148 2672840
-0.104547 0.008918 1.141971 2672840
-0.188522 0.110808 0.909725 2672840
-0.203641 0.153462 1.043556 2672840
-0.217040 0.130792 0.990951 2672840
-0.017681 0.159999 0.873035 2672840
-0.105275 0.045098 0.814477 2672840
-0.101915 0.062153 0.811519 2672840
-0.103987 0.069849 0.812069 2672840
-0.105741 0.079071 0.812473 2672840
-0.208101 0.105273 1.092474 2672840
-0.097486 0.108042 0.822164 2672840
-0.092994 0.113677 0.821867 2672840
-0.088842 0.118070 0.822009 2672840
-0.200723 -0.006964 1.023204 2672840
-0.172968 0.113812 0.885478 2672840
-0.199996 0.157129 1.041192 2672840
-0.062954 -0.065726 0.915574 2672840
-0.177353 0.118222 0.901087 2672840
-0.210931 0.080002 0.944860 2672840
-0.184075 0.115773 0.918233 2672840
-0.104131 0.055094 0.817598 2672840
-0.106552 0.071619 0.820566 2672840
-0.106928 0.079797 0.822343 2672840
-0.105873 0.087681 0.820667 2672840
-0.103664 0.096167 0.822310 2672840
-0.100980 0.102479 0.823439 2672840
-0.026228 0.123522 0.821237 2672840
-0.021129 0.131142 0.821600 2672840
-0.018535 0.134951 0.821798 2672840
-0.014312 0.141315 0.822101 2672840
-0.007598 0.150623 0.822198 2672840
-0.206740 0.086956 0.944734 2672840
-0.203528 0.090755 0.946553 2672840
-0.206941 0.148124 1.047501 2672840
-0.228490 0.071058 1.041738 2672840
-0.199483 0.096066 0.945312 2672840
-0.194951 0.100541 0.946520 2672840
-0.199127 0.155218 1.047711 2672840
-0.191170 0.104700 0.945558 2672840
-0.113436 0.064413 0.822606 2672840
-0.111242 0.068313 0.823323 2672840
-0.109520 0.014916 1.137054 2672840
-0.174191 -0.017598 1.005756 2672840
-0.003653 0.155989 0.824827 2672840
-0.186322 0.108861 0.946779 2672840
-0.182284 0.112752 0.945802 2672840
0.015119 0.164798 0.824623 2672840
-0.175852 0.117342 0.946708 2672840
-0.217143 0.140055 0.999522 2672840
-0.165558 -0.113016 1.098597 2672840
-0.171749 0.121158 0.945690 2672840
-0.193260 0.143616 1.070466 2672840
-0.082010 -0.023558 1.138503 2672840
-0.156686 0.125728 0.981549 2672840
-0.115387 0.074431 0.828118 2672840
-0.112185 0.079726 0.829473 2672840
-0.107236 0.090206 0.830342 2672840
-0.104425 0.097190 0.831398 2672840
-0.100773 0.104148 0.831805 2672840
-0.097180 0.109035 0.832016 2672840
-0.093387 0.113755 0.832214 2672840
-0.089308 0.118196 0.832362 2672840
-0.084584 0.122050 0.832412 2672840
-0.180611 0.112164 0.952239 2672840
-0.025876 0.125050 0.829731 2672840
-0.021437 0.131195 0.829997 2672840
-0.018830 0.134976 0.830183 2672840
-0.014670 0.141411 0.830490 2672840
-0.008839 0.150390 0.830915 2672840
-0.004499 0.156631 0.831202 2672840
-0.033101 -0.066799 0.944277 2672840
-0.192270 -0.010702 1.022946 2672840
-0.147272 -0.025267 0.997491 2672840
-0.173524 -0.014971 0.997326 2672840
-0.039077 -0.065938 0.941592 2672840
-0.148898 -0.021853 1.032342 2672840
-0.178935 -0.023454 1.122681 2672840
-0.069749 -0.026010 1.120761 2672840
-0.068573 -0.031736 1.147596 2672840
-0.042185 -0.042561 1.174212 2672840
-0.113323 -0.002441 1.111395 2672840
-0.068514 -0.031914 1.138626 2672840
-0.129278 -0.043603 0.981096 2672840
-0.097839 0.109532 0.838202 2672840
-0.089646 0.118354 0.838553 2672840
-0.086085 0.121970 0.841161 2672840
-0.026514 0.125430 0.838172 2672840
-0.022122 0.131657 0.838465 2672840
-0.019456 0.135350 0.838632 2672840
-0.015682 0.141295 0.838636 2672840
-0.009412 0.151574 0.838997 2672840
-0.005315 0.157177 0.839600 2672840
-0.042698 -0.064568 0.944095 2672840
-0.145629 -0.048939 0.935762 2672840
-0.212907 0.143897 1.033011 2672840
-0.187127 0.109700 0.899499 2672840
-0.009297 0.162621 0.929929 2672840
-0.174183 -0.018377 1.014540 2672840
-0.177070 -0.011855 0.994542 2672840
-0.114224 -0.047700 0.983487 2672840
0.055186 -0.056450 0.975063 2672840
-0.077427 -0.026030 1.129557 2672840
0.004636 -0.076526 1.192362 2672840
-0.108889 -0.005183 1.120305 2672840
-0.025089 -0.053776 1.165653 2672840
-0.033279 -0.035974 1.130349 2672840
-0.135258 -0.049359 0.961887 2672840
-0.012643 0.155282 0.933679 2672840
-0.004392 0.148974 0.941345 2672840
-0.119016 0.017926 1.128909 2672840
-0.012656 0.147555 0.841362 2672840
-0.002912 0.136479 0.949294 2672840
-0.114128 0.000164 1.121994 2672840
0.000835 0.137007 0.949181 2672840
-0.215125 0.121746 1.067343 2672840
-0.168242 0.080640 0.853662 2672840
-0.129616 -0.016177 1.049745 2672840
-0.214569 0.146316 1.010754 2672840
-0.166117 -0.105796 1.097577 2672840
-0.140289 -0.021589 1.015482 2672840
-0.180340 -0.054236 1.139265 2672840
-0.028071 0.125346 0.845952 2672840
-0.023990 0.132351 0.846677 2672840
-0.017822 0.142759 0.847070 2672840
-0.013618 0.150405 0.847888 2672840
-0.007516 0.159113 0.848235 2672840
-0.001087 0.163333 0.846208 2672840
-0.156402 0.104709 0.859089 2672840
-0.179683 -0.044252 1.135248 2672840
-0.015565 -0.059622 1.183011 2672840
-0.192139 0.089420 0.883301 2672840
-0.208267 0.140200 0.990546 2672840
-0.129253 -0.014561 1.059231 2672840
-0.120817 -0.046756 0.981672 2672840
-0.148013 0.115978 0.865377 2672840
-0.127232 0.015824 1.119879 2672840
0.107482 -0.064567 0.937221 2672840
-0.006472 -0.106646 0.918373 2672840
-0.093892 0.120808 0.851700 2672840
-0.021229 0.138915 0.849468 2672840
-0.105095 -0.049827 0.981603 2672840
-0.172839 -0.088063 1.099512 2672840
-0.178540 -0.006848 1.114653 2672840
0.001835 -0.070281 1.174647 2672840
-0.179737 -0.016122 1.114182 2672840
-0.121666 -0.050713 0.964122 2672840
-0.114219 -0.052118 0.964281 2672840
0.062889 -0.093216 0.925766 2672840
-0.183156 -0.015056 1.014360 2672840
-0.111581 0.001330 1.084779 2672840
-0.156204 -0.021108 1.005960 2672840
-0.173585 -0.023792 0.970668 2672840
-0.214991 0.093536 1.091454 2672840
-0.026498 0.133349 0.855514 2672840
-0.022391 0.141130 0.856368 2672840
-0.019914 0.143821 0.853960 2672840
-0.016989 0.150492 0.856101 2672840
-0.013039 0.157984 0.857820 2672840
-0.009537 0.161589 0.856175 2672840
-0.005156 0.164950 0.856932 2672840
-0.019373 0.163571 0.880285 2672840
-0.171007 -0.039721 0.926309 2672840
-0.180639 -0.024999 1.113717 2672840
-0.021446 0.157307 0.875805 2672840
-0.111647 -0.011636 1.032105 2672840
-0.171880 0.120024 0.895564 2672840
-0.185427 -0.011252 1.050174 2672840
-0.190041 -0.006416 0.997221 2672840
-0.130548 -0.026146 1.006758 2672840
-0.087155 -0.057745 0.962517 2672840
-0.093767 -0.014324 1.113795 2672840
-0.189145 0.154960 1.010913 2672840
-0.183101 0.123319 0.977118 2672840
-0.078319 -0.053912 0.973920 2672840
-0.201398 -0.006946 1.031598 2672840
-0.179069 -0.018936 1.118562 2672840
-0.167886 0.128110 0.916175 2672840
-0.095967 -0.060658 0.917236 2672840
-0.176856 -0.036906 0.920084 2672840
-0.078148 -0.057764 0.962541 2672840
-0.069157 -0.050875 0.981696 2672840
-0.050418 -0.058611 0.963795 2672840
-0.060757 -0.056241 0.965106 2672840
-0.057159 -0.057299 0.962613 2672840
-0.182102 0.104399 0.884845 2672840
-0.028396 0.134962 0.864066 2672840
-0.024760 0.141058 0.864091 2672840
-0.021577 0.147906 0.865432 2672840
-0.018760 0.152852 0.864959 2672840
-0.014553 0.159233 0.865238 2672840
-0.010107 0.163366 0.863211 2672840
-0.223622 0.129177 1.030554 2672840
-0.007726 -0.063894 1.174167 2672840
-0.112252 -0.049107 0.980730 2672840
-0.117241 -0.048546 0.979221 2672840
-0.113822 0.036920 0.818819 2672840
-0.177165 -0.036869 0.911337 2672840
-0.132721 -0.014289 1.067007 2672840
-0.077840 -0.070621 0.751934 2672840
-0.082570 -0.068339 0.755187 2672840
-0.085188 -0.061994 0.753458 2672840
-0.085170 -0.061031 0.760724 2672840
-0.087901 -0.053236 0.759401 2672840
-0.089810 -0.046042 0.759190 2672840
-0.091479 -0.042038 0.757981 2672840
-0.094401 -0.033459 0.760186 2672840
0.061937 -0.057376 0.969066 2672840
0.018634 -0.069732 0.751840 2672840
0.010494 -0.088875 0.939187 2672840
0.063182 -0.061396 0.953661 2672840
-0.160060 0.001960 0.763681 2672840
-0.227319 0.080512 1.040907 2672840
-0.076370 -0.077145 0.759240 2672840
-0.079787 -0.071143 0.761579 2672840
0.028008 -0.032465 1.013319 2672840
0.019057 -0.095913 0.934423 2672840
0.140138 -0.057649 0.889585 2672840
-0.156574 0.001466 0.770167 2672840
-0.080993 -0.018013 1.157865 2672840
-0.087094 -0.007751 1.157658 2672840
-0.225186 0.089470 1.040910 2672840
0.002131 -0.017696 1.017624 2672840
-0.150412 -0.166904 1.155627 2672840
-0.152651 -0.163264 1.158171 2672840
-0.155336 -0.157249 1.156041 2672840
-0.159621 -0.148881 1.155642 2672840
-0.163937 -0.140785 1.155987 2672840
-0.167355 -0.133884 1.155540 2672840
-0.130010 0.069321 0.767958 2672840
-0.134835 0.075928 0.765980 2672840
-0.224158 0.098486 1.038855 2672840
-0.223348 0.104486 1.038873 2672840
-0.146737 -0.174215 1.165056 2672840
-0.157679 -0.157307 1.164489 2672840
-0.173892 -0.134038 1.163310 2672840
-0.067957 -0.025572 1.166130 2672840
-0.172468 -0.140927 1.168458 2672840
-0.159430 -0.159321 1.172244 2672840
-0.222071 0.108077 1.041357 2672840
-0.081685 -0.064464 0.763962 2672840
-0.084642 -0.052680 0.769730 2672840
-0.087454 -0.044093 0.768841 2672840
-0.092472 -0.033177 0.766405 2672840
-0.150380 -0.009690 0.770214 2672840
-0.159603 0.006799 0.772491 2672840
-0.221864 0.116467 1.040964 2672840
-0.181201 -0.079011 1.133088 2672840
-0.173589 -0.088066 1.130826 2672840
-0.168050 -0.106028 1.130811 2672840
-0.161782 -0.131039 1.131402 2672840
-0.142910 0.086294 0.771130 2672840
-0.175883 -0.107802 1.145301 2672840
-0.015039 -0.032646 1.005444 2672840
-0.099741 0.004859 1.146534 2672840
-0.228465 0.062468 1.042833 2672840
-0.181264 -0.146910 1.178892 2672840
-0.167996 -0.115112 1.139196 2672840
